# .PCD v0.7 - Point Cloud Data file format
VERSION 0.7
FIELDS x y z
SIZE 4 4 4
TYPE F F F
COUNT 1 1 1
WIDTH 1232
HEIGHT 1
VIEWPOINT 0 0 0 1 0 0 0
POINTS 1232
DATA ascii
0.034802545 -0.0093546817 -0.0091585005
0.036316 -0.0090189995 -0.0090429988
-0.041459393 -0.0077557508 -0.0095141791
-0.041200481 -0.0083194803 -0.010065541
0.028374003 -0.0088297157 -0.010637287
0.02966238 -0.0086780842 -0.010635362
0.031694204 -0.0082646236 -0.010568621
0.033422526 -0.0081351381 -0.010217622
0.035066821 -0.0081890337 -0.0098318309
0.036680482 -0.0079775807 -0.0093740607
0.038108252 -0.0073885 -0.0091257496
-0.041487701 -0.0062530376 -0.0096825575
-0.041265972 -0.0061730347 -0.010441069
0.033854336 -0.0071060001 -0.010689167
0.035421118 -0.0067327796 -0.010492422
0.036946829 -0.0061281929 -0.010203887
0.038757391 -0.006178577 -0.0096791303
0.040208094 -0.0060040555 -0.0092847236
-0.041646432 -0.0043970463 -0.0096634934
-0.041169286 -0.0045845197 -0.010576844
0.037238158 -0.005226539 -0.010658387
0.038786698 -0.0047717998 -0.010516759
0.04055649 -0.0045111938 -0.01002784
0.042310372 -0.004326344 -0.0097145727
0.044101141 -0.0040755719 -0.0094610592
0.045991719 -0.00387488 -0.0092859594
0.047130201 -0.0037331998 -0.0091474
-0.041701924 -0.0026586924 -0.0096335374
-0.041002799 -0.0025262348 -0.010470175
0.041046001 -0.0034979996 -0.010752501
0.042475078 -0.0034010389 -0.010537231
0.044057921 -0.0031088772 -0.010398832
0.045864839 -0.0028650591 -0.010275825
0.047765661 -0.0028992833 -0.0098370835
0.049244057 -0.002414447 -0.0095739653
-0.04161961 -0.0013770434 -0.0094464356
-0.040757775 -0.00087250973 -0.010178934
0.048459999 -0.001679 -0.010723333
0.049770586 -0.0010822155 -0.010030138
0.051140551 -0.00048663819 -0.0097556207
0.052389 -2.0999978e-05 -0.0090429988
-0.040084347 0.00039368824 -0.0098023759
-0.039347745 0.0012207228 -0.0099800155
0.051719479 0.00077385525 -0.010288882
0.052414048 0.00093071442 -0.0093506202
-0.03881222 0.00275674 -0.0098771444
0.051739771 0.0027594222 -0.010005469
0.052266333 0.0029085558 -0.0091473339
-0.038160659 0.004421405 -0.0099341245
-0.037662823 0.0051987059 -0.010306411
0.051550679 0.0043019126 -0.010167247
0.052311085 0.0042875009 -0.0091406675
-0.036972765 0.0062225675 -0.01001178
0.051400617 0.0064083058 -0.010029733
0.052233249 0.0062462501 -0.0091152498
-0.036093753 0.00731875 -0.010001499
-0.035129387 0.0082757343 -0.010044119
-0.033897739 0.0088948002 -0.0095270686
0.051292393 0.0081606153 -0.010014214
0.05223725 0.0077522499 -0.009058251
-0.034257002 0.0090239998 -0.010636998
-0.03321496 0.0092628822 -0.01011387
-0.031538744 0.0098219188 -0.010020776
-0.03006457 0.010556348 -0.0099604689
0.050327331 0.010548666 -0.010749
0.05131701 0.0099543296 -0.0099122562
0.052251 0.0097567989 -0.0090694008
-0.029268563 0.011270732 -0.0098899752
-0.028352689 0.012218913 -0.0098623699
0.05033667 0.011062 -0.010732668
0.051198009 0.011638368 -0.0098689692
-0.027470179 0.013145822 -0.0099093188
-0.026687305 0.01396564 -0.0096015008
0.050335404 0.013877801 -0.010711402
0.051059645 0.013507025 -0.009859615
-0.0258567 0.015146 -0.010076931
-0.024885997 0.015953561 -0.0095858397
0.050278001 0.014549 -0.010797998
0.051203609 0.015322677 -0.0098494254
-0.02400421 0.017218823 -0.010064293
-0.023320999 0.017932499 -0.010264001
0.051355872 0.017107666 -0.0098233474
-0.023491334 0.018031999 -0.010158001
-0.022484599 0.018637896 -0.0098561123
-0.021491997 0.019530168 -0.0094173346
0.050293352 0.019081643 -0.010684144
0.050915796 0.018877136 -0.0097998008
-0.021693498 0.019932002 -0.010668503
-0.020791946 0.020804215 -0.0098794242
-0.019711001 0.021534 -0.009064002
0.050080664 0.020769633 -0.010041373
0.050649174 0.020166701 -0.0095550753
-0.020160193 0.022133086 -0.010395516
-0.019295901 0.022601474 -0.0096770972
0.049713552 0.02250462 -0.0099611636
-0.01883056 0.024073588 -0.010010677
-0.017756 0.024850667 -0.0092815012
0.046468999 0.025051376 -0.0098753124
0.047729682 0.024539804 -0.0099967727
0.049080547 0.023946891 -0.0099214027
-0.018224636 0.025564454 -0.01052982
-0.017152511 0.026344538 -0.0098422328
-0.015959401 0.026895601 -0.0092562009
0.030501073 0.02685036 -0.0097231446
0.031230057 0.026600886 -0.0099291373
0.033015516 0.026684308 -0.010270414
0.034492575 0.026924144 -0.010618144
0.042840559 0.026783777 -0.0094237784
0.044169769 0.026167305 -0.0098642251
0.045877229 0.025502434 -0.010271159
-0.016652999 0.027337963 -0.010353519
-0.015303148 0.028084191 -0.0097996527
0.02870925 0.028723249 -0.010448752
0.029657008 0.027819877 -0.0099889282
0.031964 0.027068999 -0.0091414992
0.033443037 0.027291521 -0.0094176801
0.035169873 0.02762134 -0.0098450482
0.036887709 0.028200641 -0.0098007526
0.038707331 0.028535847 -0.010155562
0.040764105 0.028531641 -0.01005895
0.042127509 0.027632397 -0.010095922
-0.014865606 0.029511038 -0.010286099
-0.014022459 0.029773466 -0.0093903644
0.028002163 0.029686345 -0.0098681636
0.028862335 0.028849669 -0.009273001
0.038992647 0.028947046 -0.0093023023
0.040106356 0.028958473 -0.0095901182
-0.014585909 0.030892728 -0.010574729
-0.013813489 0.031600356 -0.009855642
0.025171999 0.032388002 -0.010094501
0.026019787 0.031654872 -0.0099316649
0.027111284 0.030682573 -0.0095557151
-0.013381594 0.033329818 -0.0099401008
-0.012330716 0.034017429 -0.0092177149
0.022989256 0.033913884 -0.01015776
0.024220984 0.033091869 -0.0098912353
-0.012893666 0.034430332 -0.010353419
-0.011695443 0.035124689 -0.0099048642
-0.010546333 0.035718836 -0.0093701677
0.020842498 0.035354488 -0.0099055907
0.022046056 0.034589227 -0.0097595705
-0.011093847 0.036352307 -0.010513155
-0.010013943 0.03693923 -0.0099644233
-0.0087360004 0.037501499 -0.009172501
0.0128085 0.037757002 -0.010769751
0.018963911 0.037153933 -0.009915649
0.019947644 0.036133356 -0.0098145725
-0.0094000008 0.038203925 -0.010446924
-0.0081401542 0.038875081 -0.0097825378
-0.0068558338 0.039466664 -0.0092828339
0.012191699 0.038899671 -0.010433317
0.013390198 0.038790382 -0.010585289
0.0155503 0.039457798 -0.010103501
0.016928608 0.038811237 -0.0098754074
0.018127639 0.037906725 -0.010116092
-0.007667223 0.040031277 -0.010475611
-0.0062105977 0.040368974 -0.0099851973
-0.0047970526 0.040869072 -0.0094318409
-0.003429 0.041388001 -0.0090830009
0.010271339 0.041023247 -0.010006844
0.011499613 0.040493071 -0.0099570146
0.013664337 0.040719364 -0.0099199302
0.015224061 0.040115707 -0.010047845
-0.0043539722 0.041776784 -0.010308472
-0.0028929831 0.042430058 -0.0097947018
-0.0016490004 0.043166999 -0.0092740003
0.0071416674 0.043156337 -0.010483667
0.0082274117 0.042622469 -0.0099335946
0.0096788257 0.041789249 -0.0096149743
0.011786391 0.041946884 -0.0092127258
0.013177053 0.041776069 -0.0093322555
-0.0022276314 0.043529421 -0.01033
-0.0011759783 0.044265956 -0.0097049344
0.0045771464 0.044506498 -0.0099306526
0.0063279378 0.043862391 -0.0098430738
0.0076753888 0.043278892 -0.0092233894
-0.00050630752 0.045547534 -0.010191306
0.00056026882 0.046368107 -0.0095737977
0.0028744591 0.046005286 -0.0098708291
0.0037643949 0.045189869 -0.0097846054
0.00099140289 0.047037803 -0.010305819
0.0019391427 0.046877287 -0.010507143
-0.016354999 -0.034233 -0.007333999
-0.0150451 -0.03469459 -0.0080887806
-0.013513496 -0.034971375 -0.0080976896
-0.011651241 -0.035166878 -0.0081257327
-0.0099843079 -0.034959711 -0.0082173226
-0.0081039863 -0.034717098 -0.0081324736
-0.0063341525 -0.03448917 -0.0081670284
-0.0045491112 -0.034356155 -0.007446981
-0.003386667 -0.034242 -0.0072720004
-0.018479165 -0.032578614 -0.0079955552
-0.016952749 -0.033592116 -0.0079074744
-0.015905045 -0.033993501 -0.0083735911
-0.013116034 -0.033989452 -0.0088892588
-0.012332573 -0.034134004 -0.0088831438
-0.0097692851 -0.03376928 -0.0088298209
-0.0082709072 -0.033806991 -0.0087601822
-0.0058037005 -0.034117602 -0.0085679004
-0.0043133274 -0.033789102 -0.0083018551
-0.0033203431 -0.033296477 -0.0078077153
-0.021627665 -0.030772667 -0.0073119998
-0.020625092 -0.03108014 -0.0078615481
-0.019204713 -0.032033596 -0.0081492215
-0.0036150001 -0.032341998 -0.0089529995
-0.0029386641 -0.031391744 -0.0081461919
-0.02379927 -0.029043837 -0.0078430008
-0.022610014 -0.029828152 -0.00799732
-0.021389777 -0.030435333 -0.0084392233
-0.0025524243 -0.029599717 -0.008084897
-0.025832433 -0.02752962 -0.0081255399
-0.024611123 -0.028436605 -0.0082019772
-0.0021383783 -0.028038004 -0.0081861336
-0.0017476671 -0.027274001 -0.0073063336
-0.028851001 -0.025311001 -0.0072669997
-0.02796524 -0.025826346 -0.0081074573
-0.026792618 -0.02676831 -0.0083246939
-0.0018980475 -0.026754096 -0.008195905
-0.0015005617 -0.025983285 -0.0080194119
-0.030713601 -0.023481399 -0.0077897995
-0.029652786 -0.024317831 -0.0081414199
-0.028694624 -0.025113624 -0.0084122503
-0.00063737744 -0.024381736 -0.0081517557
4.099981e-05 -0.023491001 -0.0085310005
-0.032699402 -0.021934351 -0.0079071503
-0.031658661 -0.022698052 -0.0081735812
-1.9993543e-06 -0.023375999 -0.0073089986
0.00089777028 -0.022796402 -0.0082203057
0.002593755 -0.022212025 -0.008068352
0.0041950829 -0.021806147 -0.0076277084
-0.034511723 -0.020161757 -0.0079855183
-0.033600554 -0.021030499 -0.0081056431
0.0031217141 -0.021463932 -0.0087527875
0.0047579594 -0.021240195 -0.0080367913
0.0062810504 -0.020696763 -0.0078042336
0.0080058342 -0.020157641 -0.0077544474
0.0095494185 -0.019823806 -0.0075061605
-0.036413215 -0.018326217 -0.0079814373
-0.035405383 -0.019227542 -0.0080749234
0.0084560011 -0.019619955 -0.0087025454
0.0099483961 -0.019561395 -0.0081506399
0.011732588 -0.018991705 -0.0080105765
0.013466852 -0.018693618 -0.0080239596
0.015266524 -0.018642984 -0.00799789
0.016909482 -0.018494722 -0.0075703799
0.018388778 -0.018123221 -0.0074289995
-0.038221486 -0.016626621 -0.0080662407
-0.037303459 -0.017502405 -0.0082091354
0.015762942 -0.01776194 -0.0087331766
0.017164001 -0.017457452 -0.0085193915
0.019026928 -0.017227616 -0.0082463454
0.020550787 -0.017020753 -0.00795874
0.022621283 -0.016673876 -0.0076512038
0.024154831 -0.016598854 -0.0074960017
0.025464401 -0.0163892 -0.0072984002
-0.040032245 -0.014860974 -0.0080683511
-0.039052915 -0.015783275 -0.0082318727
0.020995585 -0.015980916 -0.008846418
0.022863626 -0.015555467 -0.0085166115
0.024025135 -0.015303021 -0.0084370403
0.026077826 -0.015165842 -0.0078893006
0.027467482 -0.014750256 -0.0075245481
-0.041594338 -0.01296511 -0.0077497787
-0.040952563 -0.013678368 -0.0082699293
0.024544917 -0.014243167 -0.0088914176
0.026284037 -0.013783943 -0.0085109016
0.027802058 -0.013689836 -0.0078679193
0.029612184 -0.013093002 -0.0075137122
0.031142315 -0.012686688 -0.007386188
-0.041875489 -0.011631762 -0.0080325389
-0.041398 -0.012368 -0.0088810008
0.026853666 -0.012304667 -0.0089380005
0.028063891 -0.012048631 -0.0086355554
0.029914821 -0.011624853 -0.0083324695
0.031453412 -0.011764905 -0.0081261825
0.033254843 -0.011584322 -0.0078441538
0.034880862 -0.011213094 -0.0075427666
0.0366777 -0.010939151 -0.0073806494
-0.041671902 -0.0099737886 -0.0079950849
-0.041355912 -0.0092287734 -0.0083303181
0.030138219 -0.010643827 -0.0088779563
0.031053336 -0.010709401 -0.0088944677
0.033556603 -0.01054944 -0.0087604802
0.035119098 -0.010231315 -0.0084355287
0.036869314 -0.0099862311 -0.0081937807
0.038401619 -0.009768134 -0.0076689473
-0.041413002 -0.0081650009 -0.0089860018
-0.041221183 -0.0081580412 -0.0080440203
0.037294466 -0.0086820005 -0.0088354005
0.039050721 -0.0079996223 -0.0081635863
0.040044412 -0.0073607066 -0.0074298829
-0.041480001 -0.0054450002 -0.0089480001
-0.041127972 -0.0062974961 -0.0080542304
0.039475672 -0.0070262966 -0.0084260004
0.04045292 -0.0067171985 -0.00826676
0.042294949 -0.0064631477 -0.008026625
0.04394459 -0.0059365565 -0.0077872165
0.045841604 -0.0055352678 -0.0074474672
-0.041940976 -0.0041814125 -0.008004752
-0.041228913 -0.0049444241 -0.0081011215
0.042662572 -0.0052430006 -0.0088962866
0.044349667 -0.0050409674 -0.0085386103
0.046077635 -0.004836326 -0.0081737749
0.047624215 -0.0043495074 -0.0080968216
0.049232461 -0.0039841207 -0.0079188328
-0.042256329 -0.0028032961 -0.0082071628
0.047934666 -0.0035853337 -0.0089493338
0.050025143 -0.0028578104 -0.0084251128
0.050628651 -0.0023186363 -0.007601711
-0.041801881 -0.0012843832 -0.008040118
-0.041090563 -0.0004188201 -0.0080310404
0.05030936 -0.0016138181 -0.0088195466
0.051133312 -0.001189471 -0.0082293041
0.052474622 -0.00031902711 -0.0080648381
-0.040143602 0.00076007657 -0.0078804884
-0.039307687 0.0013717224 -0.0082296655
0.052946761 0.000903295 -0.0081692934
-0.038670748 0.002713864 -0.0080275312
0.052875005 0.0027718358 -0.0080921305
-0.037930891 0.0041671852 -0.0084101865
-0.037490711 0.0046619298 -0.0077701714
0.052837484 0.004423595 -0.0081701213
-0.036802121 0.0063523026 -0.0081228167
-0.035931502 0.0071129999 -0.0075604985
0.052886315 0.0063091768 -0.0081154415
-0.036032669 0.007251 -0.0084436666
-0.035129279 0.0079311039 -0.0080912132
-0.033392426 0.0087114703 -0.0079263281
0.053067554 0.008088585 -0.008085235
-0.032639362 0.0091308188 -0.0084403651
-0.03146768 0.0096231615 -0.008021472
-0.03007957 0.01042336 -0.0080710631
0.053136505 0.0099555235 -0.0081278132
-0.029166376 0.011142469 -0.0081770001
-0.028141249 0.012062143 -0.008072339
0.052098252 0.011994249 -0.0089260004
0.052995455 0.011607952 -0.0079862326
-0.027246816 0.012864406 -0.0082064075
-0.026506701 0.013679602 -0.008050723
0.051966794 0.013600874 -0.0087625012
0.052980371 0.013512637 -0.0077843755
-0.02553211 0.014789572 -0.0080818571
-0.024722146 0.015740106 -0.0078012752
0.052004907 0.015234306 -0.0088257398
0.05290699 0.015474822 -0.007952651
-0.023949001 0.016737878 -0.0082362471
-0.022851074 0.0175905 -0.0080067227
0.052053545 0.01738867 -0.008637486
0.052550495 0.017021362 -0.0079539893
-0.022172425 0.01845463 -0.008400796
-0.021063805 0.019231018 -0.0080166766
0.051540554 0.018891281 -0.0082514025
0.052411947 0.018184001 -0.007578277
-0.020316187 0.020354226 -0.008409543
-0.019275635 0.021129025 -0.0079817502
0.050387003 0.020427 -0.008963
0.050899334 0.020680716 -0.0081655001
-0.018510135 0.022432413 -0.0084284181
-0.017669063 0.022834668 -0.0076443669
0.048531998 0.023382001 -0.0072029992
0.049789786 0.022804117 -0.0080858162
0.050562039 0.021909125 -0.0082855411
-0.018152269 0.023600204 -0.0088386666
-0.017291311 0.024107076 -0.0080781216
-0.016085999 0.0250545 -0.0074834987
0.044850998 0.02508425 -0.0074729989
0.045891251 0.024736254 -0.0079616169
0.047662694 0.0240515 -0.0080888821
0.04906629 0.023592953 -0.0083841439
-0.016555293 0.025696455 -0.0085626673
-0.015392942 0.026195932 -0.0080838902
-0.014146636 0.026651001 -0.007505273
0.030487334 0.026931167 -0.0088448338
0.030794669 0.026927335 -0.0089209992
0.042308576 0.026631055 -0.0080048274
0.044083662 0.025703661 -0.0081320591
0.045212246 0.02526425 -0.0087077515
-0.014712808 0.027534289 -0.0087836189
-0.013567192 0.027865712 -0.0080379611
-0.012536501 0.028439499 -0.0072870008
0.029909011 0.027710386 -0.00802249
0.031479999 0.027414164 -0.0080452599
0.033370599 0.027856741 -0.0081147403
0.034983963 0.028341582 -0.0082190419
0.036532704 0.028639531 -0.0085897064
0.03957 0.028722335 -0.0073206662
0.040594347 0.027701797 -0.0079857036
0.041681021 0.02704384 -0.0083311098
-0.013292147 0.029531874 -0.0083746919
-0.012341293 0.02976753 -0.0074318815
0.028081469 0.029781381 -0.0081706382
0.028909186 0.028930822 -0.0080406824
0.035657801 0.028891599 -0.0074133994
0.037023168 0.029101171 -0.0078385593
0.038905874 0.02931354 -0.0079977596
0.03986856 0.029094843 -0.0085760402
-0.012944735 0.031474542 -0.0086185671
-0.012133305 0.031693775 -0.0078081391
0.026128391 0.031774022 -0.0081096422
0.027234504 0.030796051 -0.0079984991
-0.012748112 0.032708444 -0.0088318894
-0.011726285 0.033381179 -0.0080867019
-0.010649125 0.033978749 -0.0074192495
0.0231975 0.034095626 -0.0083239581
0.024260618 0.033274412 -0.0081308587
0.025344618 0.032473847 -0.0079133846
-0.011168666 0.034512892 -0.0085661113
-0.0099635245 0.035068233 -0.0080518769
-0.0087097781 0.035685778 -0.007442222
0.020964196 0.035629779 -0.008225224
0.022393206 0.034727804 -0.0080995811
-0.0092671672 0.036295414 -0.0086343335
-0.0081246477 0.036924776 -0.0079036308
-0.0069089993 0.0376192 -0.0073366002
0.01791 0.037785001 -0.0077184997
0.019063612 0.036942694 -0.0080973636
0.020072147 0.036241572 -0.0078465994
-0.0076035499 0.038236946 -0.0086012511
-0.0062317615 0.038600408 -0.0079763038
-0.0047365339 0.039106037 -0.007561035
0.0161162 0.0395712 -0.0078483997
0.016997162 0.03871125 -0.0083076451
0.018074 0.037802998 -0.0088850018
-0.0057316665 0.039711665 -0.0088811684
-0.0043885 0.040201217 -0.0083689298
-0.0028899794 0.040821545 -0.0078733265
0.014099701 0.04115878 -0.0083826389
0.015303977 0.040349711 -0.008305151
0.016217001 0.03963 -0.0087360013
-0.0022541818 0.041821819 -0.0084325913
-0.0011478934 0.042590808 -0.0078932988
0.0050352151 0.04305657 -0.0073034288
0.0055676671 0.043137006 -0.0072413324
0.0088989995 0.043088 -0.0089829993
0.0099804029 0.042647727 -0.0087012928
0.011641361 0.042749964 -0.0084769297
0.013210117 0.041790061 -0.0082480293
-0.00048236575 0.043904051 -0.0082626333
0.00060056907 0.044609744 -0.0075174705
0.0020655005 0.044930499 -0.0072610001
0.0049374485 0.044392124 -0.0078303702
0.0062057772 0.044225574 -0.0078955563
0.0081532393 0.043552052 -0.0080514941
0.0097651565 0.043537378 -0.0081044463
0.010961875 0.043272875 -0.0083213747
-6.7599853e-05 0.045106199 -0.0088608013
0.0010608423 0.04568826 -0.0083159804
0.002697669 0.045740992 -0.0080676842
0.0041672154 0.045250617 -0.008092111
-0.013346197 -0.036119245 -0.0060697859
-0.011652837 -0.036095399 -0.0062420596
-0.010776999 -0.036033001 -0.0059909984
-0.016717665 -0.034585148 -0.0062572723
-0.015258622 -0.035317302 -0.006336085
-0.013648773 -0.035676327 -0.0066078342
-0.011789941 -0.035888758 -0.0063856975
-0.010030496 -0.035800304 -0.0062572751
-0.008118378 -0.035321575 -0.0062965942
-0.0061951298 -0.034915771 -0.0063982625
-0.0045917649 -0.034674976 -0.0062654652
-0.0031941314 -0.034517653 -0.0062032393
-0.019872999 -0.032490999 -0.005576001
-0.018854849 -0.033022914 -0.0061806077
-0.017469503 -0.033832863 -0.0066443929
-0.0025180525 -0.033447597 -0.0063365269
-0.0017474999 -0.032467 -0.0055105011
-0.021942999 -0.030904239 -0.0060111196
-0.020751381 -0.031609505 -0.0062616267
-0.019575 -0.032207005 -0.0069636656
-0.002225606 -0.031590573 -0.0066123935
-0.0016485453 -0.031387635 -0.0057135904
-0.024061022 -0.029315772 -0.0062674871
-0.022811916 -0.030151851 -0.0064212047
-0.0019628147 -0.02986056 -0.006854963
-0.0015031797 -0.029628322 -0.0059766392
-0.027156286 -0.027136859 -0.0058704275
-0.026025642 -0.027839163 -0.0063639157
-0.024911502 -0.028596785 -0.0066591436
-0.0018120005 -0.028338 -0.0071490011
-0.0014124166 -0.027855733 -0.0063317227
-0.029167067 -0.0254866 -0.0059408662
-0.027866619 -0.026466027 -0.0062576677
-0.026950499 -0.0269305 -0.0070509999
-0.00118367 -0.025981339 -0.0062805437
-0.03091147 -0.023630619 -0.0061998228
-0.030012071 -0.02451507 -0.0064379335
-0.00050943322 -0.024320569 -0.0062481118
-0.032932643 -0.022026846 -0.0062226928
-0.031745523 -0.022959314 -0.0063351253
-1.499234e-06 -0.023360498 -0.0068174987
0.0006651124 -0.023088694 -0.0063174041
0.0026769657 -0.022650458 -0.0062464885
0.0044759372 -0.021944612 -0.0061735953
0.0054989997 -0.021623001 -0.0054150014
-0.03472095 -0.020367682 -0.0061029438
-0.033792727 -0.021264309 -0.0062769991
0.0050922502 -0.021443555 -0.0066189491
0.0063736448 -0.021068273 -0.0062375218
0.0079942569 -0.020508982 -0.0061947922
0.0098665506 -0.020090304 -0.0063352832
0.011689572 -0.020010654 -0.0059790011
0.01351224 -0.020047426 -0.0058344998
0.014978521 -0.020054679 -0.0057871197
-0.036672194 -0.018503893 -0.0062166611
-0.03565238 -0.019383188 -0.0064096213
0.010627667 -0.019771334 -0.0071036667
0.011993746 -0.019566063 -0.0067110131
0.013350553 -0.019526323 -0.0067119086
0.015383859 -0.019498715 -0.0065788762
0.017120196 -0.019031771 -0.0062699639
0.018847924 -0.018554255 -0.0062139025
0.020519288 -0.018419929 -0.0061583561
0.02198481 -0.018270573 -0.0058972379
-0.038534112 -0.016889716 -0.0062224148
-0.037422825 -0.017798822 -0.0064499411
0.019695668 -0.017962333 -0.0071280003
0.020923002 -0.017786458 -0.0069792084
0.02271767 -0.017613774 -0.0065158182
0.024323581 -0.017161736 -0.0062940405
0.026030283 -0.016579024 -0.0064525842
0.027265862 -0.016288644 -0.0059494288
-0.040302366 -0.015054015 -0.0062091807
-0.039376937 -0.015900536 -0.006615534
0.026653705 -0.0160711 -0.0070659989
0.028041881 -0.015627537 -0.0065087369
0.029697832 -0.014829678 -0.0060168263
0.030902272 -0.014507001 -0.0055068173
-0.041823905 -0.013245685 -0.0061830641
-0.041130412 -0.014091706 -0.0066010584
0.028741 -0.014314 -0.0071569993
0.03000802 -0.013903136 -0.0067163715
0.031599127 -0.013445372 -0.0063065006
0.033141613 -0.013216396 -0.0061652563
0.03492761 -0.013010022 -0.0058568362
0.036274169 -0.012709501 -0.0055548339
-0.042012975 -0.011677861 -0.006305506
0.033436835 -0.012404881 -0.0070043602
0.035095092 -0.012125093 -0.0066947974
0.036993679 -0.0117777 -0.0063849296
0.038093995 -0.011523769 -0.0059463894
-0.041707542 -0.010295308 -0.0066749263
-0.041118097 -0.0096493224 -0.0061260681
0.038591377 -0.0099454345 -0.0061315405
0.040269129 -0.0093768276 -0.0055919997
0.04161033 -0.0091566667 -0.0054549999
-0.04163311 -0.0074441112 -0.0055469992
-0.040808689 -0.0081477081 -0.0062174252
0.039243355 -0.0084037902 -0.0066879345
0.040485334 -0.0081174346 -0.0064952243
0.042242277 -0.0080983117 -0.006080091
0.044087317 -0.0077522802 -0.0057907542
0.045376584 -0.0074613676 -0.0055861576
-0.043215752 -0.0055742506 -0.0054672495
-0.042288627 -0.0061460519 -0.0059847441
-0.041066051 -0.0066616181 -0.0066944347
0.042480029 -0.0069243335 -0.0069677173
0.044104498 -0.0065950011 -0.0067467568
0.045994695 -0.0064040702 -0.0062027788
0.047554638 -0.0058806464 -0.0058987066
0.048647001 -0.0055035003 -0.0055664997
-0.043201003 -0.0049759992 -0.0055179982
-0.042866107 -0.0045821196 -0.0062510632
0.046735998 -0.0053799995 -0.0071269996
0.04788572 -0.0050532045 -0.0068334867
0.049544662 -0.0045732041 -0.0063193524
0.050882906 -0.004032772 -0.0059325434
-0.042444676 -0.0026508737 -0.0064152004
0.051255245 -0.0027039063 -0.0062992596
-0.041751996 -0.0013761629 -0.0065540457
-0.041056555 -0.00052550004 -0.0062950198
0.051722407 -0.0011265109 -0.0064316476
0.052507825 -0.00050321926 -0.0060315342
-0.04021091 0.00069432083 -0.006485038
-0.03942927 0.0015221334 -0.0060213334
0.053280231 0.00080066262 -0.0062776008
-0.038703252 0.0026271839 -0.0062850588
0.053736251 0.0026759999 -0.0063541131
-0.03789375 0.0036672498 -0.0064542503
-0.037011649 0.0045965002 -0.0063232812
0.05373973 0.0045680148 -0.0064159874
0.054087754 0.0047930833 -0.0057852492
-0.036382485 0.0060565798 -0.0065992763
-0.035565715 0.0067795664 -0.0060805082
0.053711746 0.0061855284 -0.0067171436
0.054306619 0.006426225 -0.0059403656
-0.034817036 0.007521824 -0.0064370702
-0.03333813 0.0081882412 -0.0062114494
-0.03215928 0.0087879598 -0.0060127196
0.053883534 0.0079507334 -0.0070072669
0.054430109 0.0081993323 -0.006173667
-0.031297069 0.009430605 -0.0062990938
-0.030051546 0.010293981 -0.0063296868
0.053963669 0.010247834 -0.0071311658
0.054347634 0.0099454932 -0.0063290452
-0.029167654 0.011089193 -0.0061847307
-0.028070316 0.012033604 -0.0062784646
0.053853907 0.011899353 -0.0069113863
0.054379281 0.011577701 -0.0061538387
-0.027205501 0.012772 -0.0064048334
-0.026322328 0.013678507 -0.0062617264
0.053623497 0.013464699 -0.00665286
0.054220412 0.013226729 -0.0056561357
-0.025486164 0.014772234 -0.0063160006
-0.024550334 0.015624365 -0.006306407
0.053648073 0.015319198 -0.0064307693
0.05403164 0.015372545 -0.0056076352
-0.023634333 0.016406082 -0.0067157494
-0.022493253 0.017084021 -0.0063616079
-0.021343134 0.017774869 -0.0059724669
0.053379264 0.017101284 -0.0062823538
-0.020481693 0.018730963 -0.0064233094
-0.019445544 0.019344956 -0.0058524087
0.051969606 0.019464958 -0.0064523993
0.05267226 0.018613424 -0.0064367801
-0.018640559 0.020615557 -0.0063594412
-0.017696682 0.021304546 -0.0058736815
0.050167836 0.021348502 -0.0058476659
0.051226135 0.020608213 -0.0065026074
-0.017088907 0.022421552 -0.0063741733
-0.016057443 0.023194334 -0.0057378882
0.048103467 0.023150869 -0.0060252659
0.049364671 0.022426553 -0.0063389
0.050520498 0.02172225 -0.0069062491
-0.016436497 0.023734054 -0.0068707778
-0.015366329 0.024326149 -0.0062042973
-0.014083499 0.024873167 -0.0057036662
0.04438569 0.024901453 -0.0060899286
0.04590765 0.024222728 -0.0062795291
0.047375426 0.023612667 -0.0064000902
-0.015001333 0.025437336 -0.0069602504
-0.01353256 0.026009837 -0.0063718348
-0.012079709 0.026712894 -0.0057565784
0.041157752 0.026788 -0.005731666
0.042244185 0.026205208 -0.0061769327
0.043614261 0.025506962 -0.0064444812
-0.012834875 0.027217876 -0.007067624
-0.011820029 0.027743995 -0.0062379474
-0.010748 0.028648499 -0.0055354997
0.029688643 0.028188339 -0.0062707313
0.031522214 0.028268779 -0.0062718187
0.033303365 0.028444029 -0.0065618157
0.034553073 0.028682575 -0.0068639293
0.037726 0.028760001 -0.0054890006
0.039096136 0.028410492 -0.0060689282
0.040374447 0.02760621 -0.0064508715
0.041472599 0.027074 -0.0069870003
-0.01144213 0.029687513 -0.0065844357
-0.01057056 0.029692406 -0.0057608802
0.028309438 0.029830791 -0.0062648463
0.029104024 0.029146366 -0.0060002962
0.0319735 0.028837502 -0.0054624998
0.033626668 0.028942667 -0.0056884158
0.03522497 0.029148608 -0.0062308093
0.036866855 0.02935461 -0.0063262205
0.038572639 0.029214304 -0.006650697
-0.011208222 0.031436961 -0.0068234806
-0.010193044 0.031555109 -0.0059474343
0.026148135 0.031797513 -0.0062994268
0.027224183 0.03089411 -0.0064417776
-0.0109401 0.0329054 -0.0069902996
-0.0098535148 0.033338349 -0.0063593942
-0.0088453079 0.033794999 -0.0056725382
0.023364499 0.034195997 -0.0068865004
0.024362994 0.03327518 -0.006295715
0.02533347 0.032477647 -0.006469646
-0.0094475383 0.034417849 -0.0068156924
-0.0081751496 0.03501657 -0.0062072687
-0.0067680511 0.0355375 -0.0056309495
0.021172313 0.035719611 -0.0061869365
0.022416711 0.034983519 -0.0062508206
0.023407999 0.034240998 -0.0062120012
-0.0074751358 0.036483683 -0.0068258638
-0.0062832064 0.03689827 -0.0064343615
-0.0047116075 0.037256677 -0.0059304284
0.01786875 0.037743878 -0.0063778749
0.018951878 0.037094019 -0.0060995575
0.02024615 0.036298241 -0.0060747312
-0.0057902504 0.03788425 -0.0071302499
-0.0042524422 0.03848407 -0.0066888072
-0.0030450711 0.038992736 -0.0060744928
0.016035546 0.039408792 -0.0062160604
0.01693699 0.038607568 -0.0061464235
-0.0024652865 0.040094875 -0.0065534287
-0.0012681161 0.040990889 -0.0060736514
0.004533174 0.041194193 -0.0056211096
0.0061903833 0.041027956 -0.0056217667
0.0072602499 0.041333999 -0.0054987506
0.012486 0.041306999 -0.0054419986
0.013700749 0.040892571 -0.0061369496
0.015301334 0.040033665 -0.0064094733
-0.00053254911 0.042108871 -0.0064231679
0.00067125011 0.042563003 -0.0059202504
0.0029505345 0.042743046 -0.005599001
0.0045007407 0.042182274 -0.0064198268
0.0063711451 0.042284194 -0.0064180638
0.0081561375 0.042646524 -0.0058764392
0.010020843 0.042438876 -0.0060904371
0.011543597 0.04220574 -0.0062181959
0.012876456 0.041612636 -0.0065929093
-7.8000252e-05 0.043268003 -0.0069296672
0.00084553054 0.043849278 -0.0068237418
0.0029287613 0.044063631 -0.0064413985
0.0039221309 0.044270206 -0.0068351799
0.0067450334 0.043619502 -0.0070035001
0.0080096461 0.043561954 -0.0066840965
0.0097190179 0.043421887 -0.0068296986
0.0030135007 0.045051705 -0.0071157995
0.0038155001 0.045052499 -0.0071940008
-0.010164556 -0.03602422 -0.0051391111
-0.018213455 -0.034332726 -0.0041262731
-0.017085448 -0.034946322 -0.0044081933
-0.015278685 -0.035628878 -0.004538429
-0.013500434 -0.035550889 -0.0044742441
-0.011721662 -0.035724912 -0.00460788
-0.0099283978 -0.0357887 -0.0045829862
-0.008086429 -0.035492048 -0.0044711777
-0.0062026735 -0.035268798 -0.0045805839
-0.004457531 -0.034882482 -0.0047405479
-0.0031579169 -0.034420069 -0.0047205416
-0.020390723 -0.032764222 -0.0042321379
-0.019078977 -0.033627532 -0.0044853915
-0.0023262149 -0.033888876 -0.0043306425
-0.0014119876 -0.033116329 -0.0043867901
-0.022280809 -0.031154543 -0.0044720559
-0.021129131 -0.031914186 -0.0047422429
-0.00095216488 -0.031495437 -0.0044582589
-0.025377333 -0.028986333 -0.0037473333
-0.024234429 -0.029623684 -0.0044059879
-0.023136534 -0.030342 -0.0048207995
-0.00069420581 -0.02971481 -0.0044108732
-0.027323911 -0.027249727 -0.0043312721
-0.026083332 -0.028211204 -0.0043447656
-0.00050041161 -0.027955038 -0.0043973764
0.00010295454 -0.027566951 -0.0037295907
-0.029260153 -0.025668178 -0.004407641
-0.028163498 -0.026566762 -0.00445071
-0.00040339722 -0.026200112 -0.0045353561
9.0958216e-05 -0.026165128 -0.0037419582
-0.031057354 -0.02384356 -0.0042827637
-0.030195877 -0.024746362 -0.0044602682
-0.00031512507 -0.024610285 -0.0048091966
0.00068079325 -0.024100624 -0.0041173054
0.0024889372 -0.023850374 -0.0038483548
0.0038030001 -0.023511499 -0.0036555005
-0.033028565 -0.022088327 -0.0045507504
-0.031946026 -0.022921827 -0.0046663485
0.0009159859 -0.023204327 -0.0048988033
0.002838772 -0.023040837 -0.0046292027
0.0045340643 -0.022511531 -0.0045526056
0.0062777908 -0.021959238 -0.0045192083
0.0077479999 -0.021766089 -0.0039431178
-0.034984246 -0.020399516 -0.0045537534
-0.033892632 -0.021372501 -0.0046897917
0.0068353047 -0.021397909 -0.0052066823
0.0080716349 -0.021100579 -0.00475315
0.009977187 -0.020997867 -0.0044569997
0.011615344 -0.020840488 -0.0045115054
0.013620084 -0.02071994 -0.0045100986
0.015072688 -0.020612834 -0.0045116367
0.016533403 -0.02003872 -0.0041240794
-0.037922665 -0.018127333 -0.0040333336
-0.036914766 -0.018789701 -0.0045047053
-0.03580758 -0.019583579 -0.0047877892
0.017342906 -0.019342976 -0.0046400414
0.01888719 -0.019099323 -0.0045677652
0.020688951 -0.01893061 -0.0044798804
0.02247628 -0.01852067 -0.0044061076
0.023966931 -0.018075071 -0.0038842498
-0.039782695 -0.016364768 -0.0043063071
-0.038803067 -0.017197739 -0.004604775
-0.037784003 -0.017917 -0.0051199994
0.023229599 -0.017893201 -0.0052348003
0.024425335 -0.017642578 -0.0046616597
0.026165597 -0.016974548 -0.0044688503
0.027296927 -0.016453201 -0.004281546
-0.041567251 -0.014614001 -0.0040823738
-0.040692542 -0.01533994 -0.0046014483
0.028128102 -0.015962152 -0.0044624205
0.029682102 -0.01542926 -0.0046034562
0.031471431 -0.014908199 -0.0045299446
0.032932132 -0.014561702 -0.0042158621
-0.04205757 -0.013450523 -0.0045285579
-0.041324168 -0.014304668 -0.0051631667
0.032014202 -0.014290668 -0.005254867
0.033571742 -0.014189013 -0.0046238839
0.035028618 -0.013809121 -0.004452853
0.03681872 -0.013103249 -0.0044098566
0.038385078 -0.01267444 -0.0038771995
-0.041936781 -0.011701487 -0.0044189203
-0.041295335 -0.010939166 -0.0040841661
0.037501398 -0.012492101 -0.005162199
0.038512815 -0.011857324 -0.0046522249
0.040187918 -0.011332814 -0.0039233067
0.041508004 -0.010869 -0.0037410003
-0.04176192 -0.0095210569 -0.0038368569
-0.040994018 -0.0099539123 -0.0043857675
0.038929816 -0.010524002 -0.0052072587
0.040627778 -0.010262702 -0.004792029
0.042376198 -0.0098762233 -0.0045277677
0.043724686 -0.009455421 -0.0041086054
-0.042487979 -0.008054723 -0.0043754173
-0.040956337 -0.0086151203 -0.0050474526
0.042846624 -0.0088267503 -0.0053014993
0.044398669 -0.0085856561 -0.0047089206
0.04586247 -0.0076959287 -0.0044380529
0.047659114 -0.0073740943 -0.0043605128
0.04903768 -0.007348394 -0.0039202143
-0.043398973 -0.0060630008 -0.0043647829
-0.042813286 -0.0066815852 -0.0048141326
0.046585001 -0.0070458576 -0.0052899998
0.047879785 -0.0067892158 -0.0049945395
0.049530752 -0.0062795212 -0.0045094085
0.050813343 -0.0058749761 -0.004024317
-0.043305311 -0.0052131936 -0.0045992909
-0.042679511 -0.0044089565 -0.0044988142
0.049872681 -0.005162274 -0.0050878185
0.051146764 -0.0045386399 -0.0046129432
-0.041761022 -0.0029938775 -0.0047403416
-0.041027036 -0.0023224826 -0.0041623097
0.051842723 -0.0027824293 -0.0044526937
0.052273136 -0.0019857143 -0.004817714
-0.040313698 -0.00083146087 -0.004440045
-0.039466999 -0.00010050001 -0.0036850011
0.052057002 -0.0010532058 -0.0038330585
0.052531421 -0.00083776028 -0.0047706356
-0.039917391 0.00039260709 -0.004878608
-0.039142855 0.001121386 -0.0043283151
0.052095249 0.00026075001 -0.0036662498
0.05271212 0.00092492497 -0.0044467743
-0.03830681 0.0023829322 -0.0045253565
-0.037525095 0.0033209047 -0.0042658094
0.053175151 0.0026473911 -0.0045004534
-0.036688615 0.0044854418 -0.0046076775
-0.035920337 0.0053036669 -0.0041178339
0.053519912 0.0046278802 -0.0043810317
0.054119371 0.0051548183 -0.005136454
-0.036003999 0.0054859999 -0.0053010001
-0.034989271 0.0063828081 -0.0046268082
-0.034064792 0.0070917145 -0.0042881421
0.053481646 0.0063448441 -0.004068458
0.054278653 0.0065413504 -0.0047461502
-0.034285501 0.0072900001 -0.0053574997
-0.033275642 0.0077314982 -0.0046316669
-0.032004237 0.0086479736 -0.0044998419
0.053533267 0.0080556693 -0.004228435
0.05426218 0.0079126079 -0.0049385829
-0.031041315 0.0093869818 -0.0044102739
-0.029991295 0.010234282 -0.0044809277
0.053470191 0.009608428 -0.0041478011
0.054213189 0.0099466424 -0.0049311663
-0.029051965 0.011096298 -0.0045978641
-0.028072275 0.011927671 -0.0044495133
0.053755883 0.011599078 -0.0038694609
0.054500066 0.011804745 -0.0046001226
-0.027171712 0.012870929 -0.0043434277
-0.026280411 0.013762854 -0.0045380918
0.053837162 0.013673118 -0.0037489596
0.054399502 0.013310667 -0.0044605006
-0.025422188 0.014610563 -0.004877687
-0.024327556 0.01512601 -0.0044763978
-0.022975618 0.01586169 -0.0042516924
0.053704344 0.015479742 -0.0042352844
0.054150458 0.014961331 -0.0048946887
-0.022184599 0.016578201 -0.004689734
-0.020843672 0.017414255 -0.0043630465
-0.019681999 0.017967001 -0.0036639997
0.052169502 0.017850999 -0.0037604996
0.053229894 0.017078003 -0.0045242202
-0.020103374 0.018243751 -0.0048697498
-0.018921806 0.018979652 -0.0044467729
-0.017757801 0.0196406 -0.0038496002
0.051554702 0.018880326 -0.0043840613
0.052455999 0.018200779 -0.0048689996
-0.018157287 0.02014243 -0.0051021427
-0.017101163 0.020800997 -0.0044349092
-0.0161305 0.021326 -0.0036779994
0.049562443 0.020852225 -0.0043633268
0.050766367 0.02013891 -0.0048898179
-0.016492873 0.022179283 -0.0050056255
-0.015630361 0.022811282 -0.0043624155
0.044826999 0.023360999 -0.0036159994
0.046261974 0.022978369 -0.0041453908
0.047707263 0.022476964 -0.0044326531
0.04883365 0.02209275 -0.0049123499
-0.014946682 0.023746477 -0.0047321133
-0.013468347 0.024315337 -0.0044567389
-0.012319956 0.024859607 -0.0040431744
0.041294497 0.02512775 -0.0037727503
0.042417727 0.024698326 -0.0042352718
0.044089038 0.024227612 -0.0044274526
0.045693886 0.023692718 -0.0047823256
0.046884 0.023403 -0.0052960007
-0.01283775 0.025455751 -0.0051507498
-0.011663656 0.026289713 -0.0045824293
-0.010644636 0.026739638 -0.0038438176
0.039235778 0.026862446 -0.0038420004
0.040766824 0.026200844 -0.0044715465
0.041991431 0.025561407 -0.0050723515
-0.011052923 0.027271038 -0.0050418461
-0.010112893 0.027767988 -0.0043126745
-0.0089720003 0.028539 -0.0036725008
0.029649926 0.028636372 -0.0051279254
0.03088025 0.028732 -0.0052707507
0.035355859 0.028451324 -0.0038764647
0.036984906 0.028026069 -0.0041931719
0.038575679 0.027597185 -0.0045510167
0.040117398 0.027222762 -0.0049371598
-0.0096404664 0.029555468 -0.0047829561
-0.0086316112 0.029874891 -0.0039607226
0.027992547 0.030237092 -0.0044932808
0.029612139 0.029333169 -0.0044523883
0.031730942 0.029290544 -0.0045474651
0.033459198 0.029507495 -0.004252228
0.034915932 0.029417617 -0.0045185457
0.036476839 0.029120998 -0.0050579202
-0.0093358262 0.031254698 -0.0051358696
-0.0081781792 0.031582709 -0.0043782797
-0.0069290004 0.031998377 -0.0037445619
0.025080469 0.032295935 -0.0046028662
0.026053207 0.031587809 -0.004499774
0.027844587 0.030650528 -0.004096528
-0.0078345006 0.033328328 -0.0047638798
-0.0065645869 0.033584096 -0.0042225774
0.023255 0.034107 -0.0037739982
0.024421738 0.033069026 -0.0045226994
-0.0074763345 0.034516498 -0.0051644989
-0.0063343584 0.034883551 -0.0049275127
-0.0047656596 0.035370197 -0.0041081808
-0.0034700006 0.035999998 -0.0037129985
0.021021033 0.035810843 -0.0042774994
0.022372046 0.034915317 -0.0044730455
-0.0056529995 0.036090501 -0.0052642492
-0.0042710351 0.036534574 -0.0048444481
-0.0030013889 0.037124872 -0.0043186848
0.017299742 0.037429579 -0.0042162202
0.019056687 0.036922701 -0.0045043575
0.020271249 0.036308952 -0.0046370304
-0.0023677384 0.038447361 -0.0048128101
-0.0012687418 0.039021615 -0.0040223221
0.00061799999 0.039579198 -0.0037244007
0.0045358972 0.039274719 -0.0038856906
0.0063458825 0.039240684 -0.0039266469
0.0076498888 0.039317667 -0.0037493329
0.013666033 0.039070521 -0.0039177868
0.015330338 0.038771812 -0.0043045455
0.016587254 0.038257886 -0.004659303
-0.0018859997 0.039664999 -0.0053839996
-0.00061836484 0.040272575 -0.0045897434
0.00077320833 0.040508941 -0.0043336041
0.0028674304 0.040907357 -0.0042334143
0.004447137 0.040268563 -0.0046578981
0.0063144285 0.040159453 -0.0047093914
0.008106607 0.040487841 -0.0042811381
0.010027758 0.040688362 -0.0043836525
0.011683524 0.040483627 -0.0044662822
0.013461972 0.040199514 -0.0047521186
0.014758001 0.039730858 -0.0050957147
-0.0002250002 0.041493665 -0.0053493334
0.0010199739 0.041764002 -0.0051722894
0.0028406461 0.041993566 -0.0049668294
0.0084744506 0.041745853 -0.0051407251
0.0094100004 0.041696247 -0.0051573212
0.011664215 0.041502643 -0.0053257141
-0.018134832 -0.034314502 -0.0033959998
-0.01699942 -0.034596249 -0.0029587385
-0.015302603 -0.035029419 -0.0026586577
-0.013513428 -0.035248231 -0.0026782453
-0.01188843 -0.035101611 -0.0026258894
-0.0099519342 -0.035037648 -0.0026252745
-0.00794545 -0.035051804 -0.0027249919
-0.0063855653 -0.034739166 -0.0027242545
-0.0048858346 -0.0344075 -0.0031034169
-0.002492592 -0.034374919 -0.0020281626
-0.0016905001 -0.034349252 -0.0020556247
-0.020646524 -0.033121519 -0.0026002335
-0.018857364 -0.033831149 -0.0027106435
-0.017597953 -0.034081817 -0.0023335449
-0.0056300913 -0.03407364 -0.0019657267
-0.0042885798 -0.033754855 -0.0023019768
-0.0026716266 -0.033646807 -0.0027860331
-0.0011366344 -0.033286013 -0.0028091464
9.7000237e-05 -0.032515001 -0.0018519999
-0.023929952 -0.030818142 -0.0022345237
-0.022521861 -0.031640157 -0.0026587027
-0.021504669 -0.032246999 -0.0032323329
-0.00021716137 -0.031713478 -0.0032008386
0.00033598178 -0.031471848 -0.0023109086
-0.025881859 -0.0293996 -0.0024995951
-0.024399647 -0.030190874 -0.00298287
-7.2368515e-05 -0.029708793 -0.0034774735
0.00053508347 -0.0295924 -0.0026807913
-0.028803 -0.027141999 -0.0018689984
-0.027655602 -0.027716037 -0.0026154795
-0.026434215 -0.028540786 -0.0030649288
-2.7500362e-05 -0.028576748 -0.0035332504
0.00062332011 -0.027917182 -0.002680039
0.0019229997 -0.027185999 -0.0018840001
-0.030761667 -0.025247334 -0.0020346669
-0.02948273 -0.025969652 -0.0027578464
-0.02841052 -0.026674572 -0.0031680469
0.00076127343 -0.026099978 -0.0030232582
0.0025936235 -0.025983678 -0.0025259277
0.0042048916 -0.025637923 -0.002102297
-0.03246 -0.023407001 -0.0024000013
-0.03147281 -0.024187522 -0.0026636147
-0.030358499 -0.024892101 -0.0032194001
0.00091452652 -0.024962844 -0.0034953153
0.0028834543 -0.024650067 -0.0033066585
0.0044172434 -0.024287077 -0.0029112434
0.0061257551 -0.02405569 -0.0022326936
0.0076706358 -0.023497 -0.0019277274
-0.034302004 -0.021700799 -0.0022452006
-0.033248067 -0.022472817 -0.0028532257
-0.032233387 -0.023205385 -0.0032116156
0.0050569996 -0.023073444 -0.0033875545
0.0063118567 -0.022859676 -0.0030491622
0.0083442088 -0.022536803 -0.0027961812
0.0098067485 -0.022247605 -0.0026124408
0.011764442 -0.022078799 -0.0027515392
0.013532277 -0.021938179 -0.0027739014
0.015071939 -0.021827545 -0.0023946511
-0.036220077 -0.020006135 -0.0021998007
-0.03518733 -0.020762442 -0.0027034716
-0.03413967 -0.021539334 -0.0032436666
0.0089870002 -0.021554001 -0.0035640018
0.0097423568 -0.021535786 -0.0034767855
0.011699636 -0.02153491 -0.0035493639
0.013492166 -0.021516249 -0.003486583
0.015627852 -0.021136248 -0.0027300999
0.017039808 -0.020401103 -0.0024609261
0.018826 -0.020120401 -0.0019949495
0.020054001 -0.019953197 -0.0018872997
0.022968 -0.019974401 -0.0019742998
0.023933699 -0.0199288 -0.0019421002
-0.038163275 -0.018263454 -0.0027197718
-0.036998414 -0.019188263 -0.00266672
0.017812615 -0.019539002 -0.0030902692
0.018970538 -0.01953325 -0.002689461
0.020602295 -0.019392205 -0.002564345
0.022746669 -0.018986885 -0.0025549422
0.024144258 -0.018781142 -0.0028118743
0.026091548 -0.018713856 -0.0025197421
0.027572261 -0.018371791 -0.0020655263
-0.039963081 -0.016578037 -0.0025853843
-0.039094783 -0.017465143 -0.0026916433
0.026525615 -0.017654521 -0.0032691539
0.027734129 -0.016986543 -0.0030640003
0.029708615 -0.01674277 -0.0023673538
0.031217154 -0.016625632 -0.0020827367
0.032591 -0.016325999 -0.0018639991
-0.041636616 -0.014630167 -0.0031366658
-0.040808327 -0.015333684 -0.0025916533
0.028287036 -0.016016759 -0.003439279
0.029685976 -0.015735222 -0.0033275394
0.031527121 -0.015496758 -0.0031076793
0.033262853 -0.01511019 -0.0028309459
0.034917973 -0.01488135 -0.0022925402
0.036526572 -0.014572144 -0.0019335716
-0.042153694 -0.013381211 -0.0026789904
-0.04126 -0.014252571 -0.0020107145
0.033857651 -0.014288829 -0.0033150427
0.035145648 -0.014197947 -0.0030459214
0.036866833 -0.013832657 -0.0026777952
0.038633812 -0.013227314 -0.002735981
0.04025929 -0.012981651 -0.0023189844
-0.042594701 -0.011697294 -0.0027819406
0.039423097 -0.012532729 -0.0033844549
0.040599413 -0.012077425 -0.0029981288
0.042009529 -0.011273149 -0.0026798493
-0.043482732 -0.009567461 -0.0024131434
-0.042539861 -0.01007662 -0.0030124215
0.042851016 -0.010523759 -0.0027637272
0.044020016 -0.0097787092 -0.0027360066
0.0458478 -0.0094117997 -0.0024351131
0.046962205 -0.0092228008 -0.0020246666
-0.043756943 -0.008116453 -0.0027626667
-0.043110952 -0.0081378091 -0.0035310469
0.044975001 -0.0089560011 -0.003420999
0.046034187 -0.0081061497 -0.0031201583
0.047542591 -0.007783941 -0.0024976402
0.049513727 -0.0074066552 -0.0026224614
-0.043707237 -0.0063666287 -0.0027578997
0.050262559 -0.0070880004 -0.002852499
0.050882597 -0.0062501905 -0.0027522142
-0.043280505 -0.0053256671 -0.00269
-0.042605445 -0.0044840258 -0.0026354401
0.051065791 -0.0045413296 -0.0026315365
-0.041598253 -0.00338225 -0.0026881495
-0.040727671 -0.0024878765 -0.0026732457
0.050376602 -0.0028070004 -0.0018536004
0.051088799 -0.002674368 -0.0028044814
-0.03984879 -0.0014867142 -0.0028616423
-0.039235324 -0.00067628582 -0.0025692217
0.05121959 -0.0010503737 -0.0027288795
-0.038510192 0.00076569134 -0.0027932101
-0.037669446 0.0015858886 -0.002207556
0.051614307 0.00089445611 -0.0027911051
0.052223999 0.0014295001 -0.0035005005
-0.037948169 0.0020548336 -0.0033526667
-0.037242085 0.0026752858 -0.002702571
0.051722221 0.0026503336 -0.0025227335
0.052373998 0.0027895456 -0.0034202731
-0.036418147 0.004192953 -0.0028260951
-0.035773754 0.0050586076 -0.0025383567
0.051758494 0.0045482032 -0.0024635259
0.052540351 0.0045922752 -0.0033137251
-0.034939434 0.0060972925 -0.0027047235
-0.033954006 0.0070241336 -0.002530667
0.051737092 0.0062911506 -0.0024351322
0.052520201 0.0062653585 -0.0033452564
-0.033081155 0.0077925334 -0.0027277775
-0.031918447 0.0086433208 -0.0026435892
0.05171039 0.0085037164 -0.0024266017
0.052631959 0.0083419373 -0.0031923547
-0.031032067 0.0093327742 -0.0027062271
-0.029924408 0.01027395 -0.0027613405
0.051356237 0.0097052138 -0.0023642778
0.052544706 0.010005792 -0.0032852492
-0.029069806 0.010999805 -0.0027923656
-0.028016482 0.011946569 -0.0026491538
0.051617458 0.011494868 -0.0021559014
0.052754901 0.011561539 -0.0030175794
-0.027221546 0.012727453 -0.0031350907
-0.025996543 0.0134531 -0.0026896305
-0.02448928 0.014095454 -0.0024215737
-0.023326 0.014389 -0.0018120015
0.051652312 0.013623622 -0.0021411374
0.053150669 0.013617748 -0.0032042498
-0.024111085 0.014638286 -0.0031170158
-0.022599008 0.015262089 -0.0026343581
-0.02120043 0.015924573 -0.002200786
0.051521398 0.015294566 -0.0021483209
0.052833997 0.0152994 -0.0030800728
-0.021710999 0.016266 -0.0034219993
-0.020534661 0.016770918 -0.0028281594
-0.0192519 0.0175492 -0.002434033
0.05161291 0.017150789 -0.0024774377
0.05262458 0.016706184 -0.0032224841
-0.018537357 0.018443571 -0.0029115237
-0.017392529 0.01914298 -0.0024347547
0.050012443 0.019377446 -0.0024087774
0.051045589 0.018538501 -0.0028286304
-0.016613785 0.020243913 -0.0029832609
-0.015565188 0.021049064 -0.0023903556
0.046369001 0.0215725 -0.0018749998
0.047942918 0.021145556 -0.0024978518
0.049225505 0.020323368 -0.0029429332
-0.014926963 0.022286355 -0.0027903293
-0.013688276 0.022766845 -0.0022594165
-0.012384733 0.023194868 -0.0019352665
0.042627331 0.023154501 -0.0022158329
0.044288728 0.022760577 -0.0025162497
0.045973364 0.022288613 -0.0027424351
0.047319662 0.021846345 -0.0030184542
-0.013125878 0.023729485 -0.003026606
-0.011725948 0.024272516 -0.0026002422
-0.010585523 0.024964044 -0.0021835708
0.039333668 0.025028836 -0.0019288335
0.040729403 0.024538681 -0.0025042281
0.042079881 0.024038589 -0.002893419
0.043638498 0.023584835 -0.003296
-0.011014091 0.025440363 -0.0032225444
-0.010001933 0.026099678 -0.0026057865
-0.0089559993 0.026827 -0.0019750015
0.033967499 0.026886251 -0.0018607497
0.035213392 0.02672806 -0.0020184994
0.036874667 0.026532488 -0.0023833469
0.038732652 0.026128564 -0.0027219302
0.040163409 0.025730407 -0.0030774907
-0.009371697 0.027524479 -0.0032177386
-0.0084026027 0.028076636 -0.0026283108
0.033571005 0.027986789 -0.0022046862
0.034941863 0.02759452 -0.0027048998
0.036700167 0.027271545 -0.0031567835
0.038105 0.027031001 -0.0035250017
-0.0078401892 0.029406518 -0.0029876558
-0.006748707 0.029990606 -0.0023751371
0.028313735 0.030260781 -0.0024164999
0.029581897 0.029975241 -0.0026925455
0.031525105 0.030129753 -0.0026193343
0.033134852 0.029694825 -0.0028886732
0.034308501 0.0288915 -0.003487
-0.0074202865 0.030877715 -0.003525286
-0.0061567351 0.031413961 -0.0028946425
-0.0048637358 0.031787585 -0.0021085583
0.024774799 0.032064904 -0.0022082003
0.026206002 0.031251404 -0.0025847699
0.027526891 0.030796519 -0.0028454994
-0.0058482336 0.033043001 -0.0033165335
-0.004590828 0.033422638 -0.0026072399
-0.0033377775 0.03381433 -0.0020526673
0.017035 0.034194998 -0.0018094999
0.019215727 0.03395582 -0.0018907274
0.020875873 0.033732839 -0.002001548
0.022548938 0.033648092 -0.0023427906
0.024004117 0.032960564 -0.0028233177
-0.0042247921 0.034747936 -0.0032543121
-0.0028366023 0.035152186 -0.0026538866
-0.0012812181 0.035480358 -0.001900327
0.0011240373 0.035766032 -0.0018728143
0.0020770836 0.035776418 -0.0018706671
0.0089259995 0.035942998 -0.0018240006
0.0094726002 0.035933997 -0.0018301004
0.013923062 0.035849687 -0.0019323752
0.015398745 0.035375241 -0.0020018639
0.016996523 0.034985982 -0.0021424026
0.018939801 0.035102077 -0.0024719636
0.020633318 0.035094637 -0.0028677478
0.022031499 0.034453254 -0.0029825408
-0.0022306668 0.036669578 -0.0031475415
-0.00091236032 0.036980256 -0.0023117559
0.00099821645 0.036928918 -0.0021371257
0.0025268854 0.037076484 -0.0023572478
0.0041115782 0.037533686 -0.0020612106
0.0066712108 0.037454687 -0.0023148269
0.0081009427 0.036875274 -0.0023355675
0.0097277993 0.036913984 -0.0021913941
0.011642661 0.037173472 -0.002021553
0.013621481 0.036779616 -0.0024189171
0.015219722 0.036773369 -0.0027961927
0.017094094 0.036833975 -0.0032009878
0.018781129 0.036354262 -0.0032105739
0.019901499 0.036064997 -0.0034535003
-0.00060972589 0.03860461 -0.0030746437
0.00087272574 0.038615074 -0.0027686928
0.0027072916 0.038683571 -0.003017542
0.0043285973 0.038514826 -0.0030239776
0.0062333923 0.038365535 -0.0029473125
0.0081404056 0.038586136 -0.0032382836
0.0099416152 0.038743071 -0.0029563562
0.011692869 0.038752761 -0.002800833
0.013380478 0.038304109 -0.0031864133
