# .PCD v0.7 - Point Cloud Data file format
VERSION 0.7
FIELDS x y z
SIZE 4 4 4
TYPE F F F
COUNT 1 1 1
WIDTH 1259
HEIGHT 1
VIEWPOINT 0 0 0 1 0 0 0
POINTS 1259
DATA ascii
-0.0032805311 0.048836716 0.00087634352
-0.012844286 0.050500855 0.0017025722
-0.011567413 0.05076503 0.0014605519
-0.009939705 0.050851502 0.0011401386
-0.0077348961 0.050605595 0.001053942
-0.0063789822 0.050726529 0.00095868163
-0.0053899996 0.0504 0.00014699882
0.0033849999 -0.045090999 0.0019032013
0.0045975684 -0.045303643 0.0020815681
0.0063020433 -0.045391954 0.0021383828
0.0079492629 -0.045328259 0.0021652239
0.009814675 -0.045317754 0.0020732253
0.01165354 -0.045187548 0.0020343852
0.013040334 -0.045169666 0.001968333
-0.00025450002 -0.043387104 0.0019939998
0.0011099481 -0.04384869 0.0023096616
0.0027111089 -0.044128783 0.0027148752
0.00455378 -0.044209577 0.0028832518
0.0061434959 -0.044271842 0.0029762189
0.0081850672 -0.044248205 0.0031528366
0.0099347522 -0.044103406 0.0028861302
0.011631645 -0.044147458 0.0029571149
0.013577152 -0.044131793 0.002823143
0.015300466 -0.043790583 0.0026474835
0.017153522 -0.043701332 0.0025926356
0.01875652 -0.043630973 0.0024395585
0.02049084 -0.043451663 0.0023990907
-0.0019246663 -0.041531336 0.0019376676
-0.00076517562 -0.042110689 0.0022228153
0.00089486426 -0.042328428 0.0030170074
0.0020354376 -0.042949505 0.0034423755
0.0089555001 -0.0424545 0.0035862501
0.0096187945 -0.042820111 0.0034266973
0.010807 -0.0431135 0.0035205006
0.015615955 -0.043020368 0.0034331819
0.016856071 -0.04304615 0.0034845001
0.018924208 -0.043041866 0.0033926899
0.020881947 -0.042927612 0.0032072365
0.022774804 -0.042390794 0.0028791984
0.023840571 -0.041777935 0.0024268928
-0.0036249999 -0.039607 0.0019420001
-0.0024338549 -0.040267654 0.0022765419
-0.00087286974 -0.040532213 0.0028592069
0.00049425371 -0.040879041 0.0032750438
0.024743613 -0.040940356 0.0026893253
0.025961004 -0.040663149 0.0025485123
0.0279286 -0.040501684 0.0027460973
0.029669078 -0.040665194 0.0026478223
0.031298764 -0.040009871 0.0027553516
0.032865465 -0.039790776 0.0021779228
-0.0073508332 -0.037844837 0.0019840836
-0.0063109738 -0.038073804 0.0021462701
-0.004325272 -0.038490128 0.0022553999
-0.0028354409 -0.038858715 0.0029050633
-0.00096034049 -0.03937187 0.0034094041
4.4999997e-05 -0.039443001 0.0035589996
0.032067914 -0.03948582 0.003382545
0.033602845 -0.039000947 0.0028660123
0.034846298 -0.038317569 0.0025516443
-0.02893067 -0.036106668 0.001864334
-0.028036365 -0.036099277 0.0019103637
-0.025717001 -0.036213621 0.0019721254
-0.024400914 -0.03613231 0.0019874354
-0.014526499 -0.0360495 0.0019694983
-0.01321898 -0.036262799 0.002249833
-0.011647391 -0.036525059 0.0027485834
-0.0098900478 -0.036922272 0.0026944114
-0.0080592623 -0.037062131 0.0026427326
-0.0063471319 -0.036955565 0.0026643844
-0.0045857346 -0.037095044 0.0031924117
-0.0032364002 -0.037411757 0.0034215595
0.035605658 -0.037480809 0.0030705996
0.03668749 -0.03670771 0.0026524344
0.037949223 -0.036178999 0.0021315557
-0.030943183 -0.034579553 0.0019532726
-0.029522153 -0.035090253 0.0022534339
-0.027859056 -0.035317332 0.0027796074
-0.026281873 -0.035368782 0.0028707967
-0.024143066 -0.035560999 0.0028646262
-0.022580374 -0.035138719 0.0027669382
-0.020792002 -0.034878887 0.0027151974
-0.018921509 -0.035008445 0.0026663821
-0.016960355 -0.035098117 0.0026982918
-0.015290144 -0.035394996 0.0026606859
-0.013470131 -0.035616659 0.0031068355
-0.011331701 -0.035318587 0.0034912999
-0.00992487 -0.035055965 0.0030743449
-0.0081336983 -0.035097212 0.0028390379
-0.0066436101 -0.035343051 0.0031021598
0.037376463 -0.035695311 0.0031237502
0.038713254 -0.035240021 0.0026533159
0.040306225 -0.034654483 0.0025830208
0.042058423 -0.034372531 0.0021004211
-0.032786146 -0.032851145 0.0019162862
-0.031590004 -0.033130281 0.0024076945
-0.029804023 -0.033392318 0.0031477551
-0.028564403 -0.033877201 0.0034681994
-0.011130651 -0.033126771 0.0033723859
-0.0099344309 -0.033525109 0.003100218
-0.0082217418 -0.033962805 0.0033474851
-0.0070904004 -0.034078803 0.0035338011
0.041008178 -0.033943534 0.0033051178
0.042386651 -0.033810098 0.0029226125
0.044199906 -0.033235412 0.0027784421
0.045716431 -0.032772943 0.0022975511
0.047215614 -0.032543771 0.0020587691
-0.034442287 -0.030968856 0.0019265712
-0.033228289 -0.031417698 0.0023974343
-0.031744301 -0.031607002 0.0031399776
-0.030307669 -0.032326669 0.0035013321
0.044870894 -0.032203112 0.0034240007
0.045822319 -0.031830173 0.0029976463
0.047642875 -0.031722452 0.0027947731
0.04915031 -0.03107683 0.0024830778
-0.036338773 -0.029050846 0.0020521532
-0.035062097 -0.029498603 0.0024037599
-0.033500217 -0.029780068 0.0031420237
-0.032200336 -0.030440999 0.0035136666
0.049876064 -0.029627962 0.0025784797
0.050464999 -0.028881667 0.0019626669
-0.038333327 -0.02746194 0.0023165818
-0.036864258 -0.027709061 0.0028079383
-0.03530046 -0.028106334 0.003175884
-0.034098335 -0.028610667 0.0034896657
0.050085332 -0.028463872 0.0029959485
0.051348362 -0.028105818 0.0028539803
0.053144991 -0.027544264 0.0027877863
0.05448579 -0.027268136 0.0022447589
-0.041468002 -0.025378 0.0018479999
-0.0400475 -0.025925575 0.0024783108
-0.038805466 -0.026129067 0.0029990133
-0.03706504 -0.026684232 0.003259442
0.0538815 -0.0269095 0.0034700006
0.05515752 -0.026223652 0.0027694453
0.056013003 -0.0254802 0.0022800667
-0.043702409 -0.023596177 0.0020008825
-0.042156715 -0.024128731 0.0025132308
-0.040398452 -0.024639085 0.0030426201
-0.039242826 -0.024918826 0.0033980345
0.055778999 -0.025184 0.0032230008
0.056762915 -0.024208568 0.0027762901
-0.045372684 -0.021975262 0.0021585259
-0.044188987 -0.022591397 0.0025632279
-0.042487152 -0.023062749 0.00325825
0.057481308 -0.023286209 0.0027432109
0.058343954 -0.022420403 0.0026430348
-0.046902668 -0.020131333 0.0020331668
-0.045917679 -0.020528836 0.0027137604
-0.044612478 -0.021180475 0.003280286
0.059196606 -0.02124037 0.0026341409
0.059707239 -0.020395078 0.0027543677
-0.047198586 -0.018701181 0.0022666543
-0.046239328 -0.01886485 0.0030920526
0.060544368 -0.018767068 0.0025846963
-0.0473979 -0.017158369 0.0027694011
-0.046300665 -0.017710511 0.0033286985
0.06091259 -0.017443901 0.0024629028
0.061301362 -0.016435018 0.002421207
-0.048736837 -0.0146775 0.0020611673
-0.047924101 -0.015313851 0.0029209503
0.062016763 -0.01535762 0.0026054182
-0.048940074 -0.013388458 0.0023774744
-0.048377294 -0.013628822 0.0032214997
0.062845439 -0.014162161 0.0027104772
0.063265204 -0.013282435 0.0025878581
-0.049457222 -0.011736094 0.0026361146
-0.048540335 -0.012315333 0.0034970008
0.062879719 -0.011225572 0.0034755722
0.063518524 -0.011827244 0.002644307
-0.05054757 -0.0099366093 0.0020019128
-0.049963292 -0.010011707 0.00283725
0.062868416 -0.0099520022 0.0033865266
0.063680418 -0.0098791011 0.0026079658
-0.050632674 -0.0079447776 0.0021157216
-0.050005887 -0.0081838807 0.0030578333
0.062819868 -0.0084742 0.0034468002
0.063962519 -0.0081718871 0.0025983974
0.064963579 -0.0077319467 0.001909948
-0.050663091 -0.006183343 0.0023050315
-0.050129693 -0.0063723093 0.0031701375
0.064135551 -0.0063844766 0.003113091
0.065340586 -0.0061605605 0.0021951997
-0.050750386 -0.00456159 0.0023358716
-0.050146889 -0.0046866545 0.0032151928
0.064648502 -0.0051410003 0.0034405
0.065733619 -0.0044515072 0.0026698133
-0.050738629 -0.0025131393 0.0023363486
-0.050167326 -0.00281636 0.0032348
0.065871909 -0.0026241704 0.0027098428
-0.050970472 -0.00080058159 0.0024228564
-0.050243892 -0.0008465001 0.0033475002
0.064683005 -0.00025028575 0.0018952857
0.065450333 -0.00092961692 0.0027765883
-0.052341532 0.0013314704 0.0020458824
-0.051437788 0.00084232737 0.0028012076
-0.0502715 0.00025375004 0.003558249
0.064007849 0.0010865889 0.0027246792
0.064962894 0.00024377785 0.0033056655
-0.052629687 0.0028649413 0.0023088432
-0.051769681 0.0028203193 0.0031682351
0.062918767 0.0031659233 0.0018934612
0.06336838 0.0027244263 0.0026641416
-0.054062504 0.0053077503 0.0019872512
-0.053082578 0.0046087415 0.0022860665
-0.051643945 0.0046624523 0.0029463198
0.062614858 0.0046008071 0.0022452471
0.063191332 0.0042996379 0.0030143133
-0.054391135 0.0065865791 0.002505217
-0.053047687 0.0063257082 0.0029183701
-0.05136947 0.0062270989 0.0029811093
0.061033748 0.007019625 0.0027095003
0.062233102 0.0059981449 0.0026027861
-0.056223623 0.0084062405 0.0021286556
-0.054887347 0.0078921057 0.002760893
-0.053082585 0.0073606959 0.0034770002
-0.052193001 0.0072400002 0.0035490009
0.058734912 0.0086206952 0.0027787115
0.060062788 0.0077207144 0.0027175476
-0.057788145 0.010433858 0.0020747148
-0.05665781 0.0098814471 0.002756038
-0.055492539 0.0093776006 0.0034037335
0.0557575 0.0107625 0.002618999
0.056723099 0.010044192 0.002597013
0.057912562 0.0091865202 0.0025844448
-0.059467003 0.012439 0.0019180018
-0.058366433 0.01182646 0.0026302603
-0.05711586 0.011284518 0.0033225867
0.05356092 0.012286919 0.0027877602
0.054893389 0.011385455 0.0026506181
-0.059851546 0.013882628 0.0024803844
-0.058983676 0.013332753 0.003101517
0.050253 0.014309001 0.0028378568
0.051248126 0.013732521 0.0026958543
0.052631572 0.012884566 0.0027661307
-0.061376411 0.015845355 0.0021817053
-0.060627431 0.015206046 0.0026579441
0.046687398 0.0161114 0.0033716999
0.047718532 0.015732732 0.0028587787
0.049471501 0.01478648 0.0026536398
-0.061863806 0.017171271 0.0026278924
-0.060985405 0.016597603 0.0033965334
0.043051001 0.017848 0.0035819996
0.044162545 0.017550116 0.0028321885
0.045989487 0.016669754 0.0026337334
0.046928249 0.016262751 0.0023124989
-0.063307025 0.019075509 0.0022060242
-0.062598765 0.018639646 0.0028537964
0.040989678 0.019504966 0.0029487242
0.042338856 0.018687094 0.0026885241
0.04351325 0.018142624 0.0021845002
-0.063814215 0.020644629 0.0026587076
-0.062936999 0.019954 0.0033919986
0.037614144 0.02148786 0.0031621424
0.038652793 0.020983489 0.0027600587
0.040153723 0.02009536 0.0026760004
-0.065071769 0.022786295 0.0022127053
-0.064297251 0.022360086 0.0030289164
0.034032002 0.0233135 0.0033950012
0.035304811 0.022928359 0.0026251483
0.036866166 0.022081109 0.0025575529
0.037896 0.021610001 0.0021629992
-0.065452531 0.024353106 0.0026252288
-0.064643338 0.023726834 0.0033679996
0.031861253 0.024875099 0.0027481294
0.033327233 0.024041791 0.0026042794
0.034500889 0.023544779 0.0021737781
-0.066782311 0.026585924 0.0020959994
-0.066043079 0.026031883 0.0028230392
0.028425857 0.026810646 0.0031460004
0.029749196 0.026164467 0.0027474321
0.031060364 0.025487363 0.0024321817
-0.067175783 0.028155649 0.0023836461
-0.066399515 0.027772415 0.0033134907
0.026290543 0.028323799 0.0025962384
0.027596179 0.027477821 0.0026777775
0.028856 0.027005 0.0018939998
-0.066964529 0.029239483 0.0027228601
-0.066217251 0.030078495 0.0028042768
0.023159478 0.030209808 0.0033595483
0.024313198 0.029672354 0.0025717686
0.025604684 0.029105689 0.0020207502
-0.065252401 0.031241566 0.0028322623
-0.064534925 0.032006856 0.0021641222
0.019226447 0.032071341 0.0032346894
0.020790378 0.031843647 0.0028646903
0.022409163 0.031230679 0.0026692953
0.023557888 0.030800555 0.0021907773
-0.063950911 0.032801244 0.0027552182
-0.062121402 0.033364072 0.0026108413
-0.060273312 0.03372914 0.0027177811
-0.058740798 0.034019392 0.0024214855
-0.057104915 0.034095638 0.0019982725
0.01578371 0.033919662 0.0029415523
0.01711599 0.033496801 0.0027057421
0.018835142 0.0329176 0.0024319361
0.020248769 0.032496233 0.0019980764
-0.05828527 0.034383345 0.0031054821
-0.056718916 0.034567147 0.0028509144
-0.054816369 0.034788873 0.0025125691
-0.053087845 0.035222001 0.0026108979
-0.051504813 0.035684362 0.0027807071
-0.050065115 0.035885334 0.002206444
0.012271073 0.035821799 0.003253195
0.013430035 0.035333771 0.002814207
0.015037977 0.034508023 0.002459978
-0.050619837 0.036093831 0.0033273338
-0.0494527 0.036263518 0.0028753048
-0.047633804 0.036729485 0.0026231934
-0.045805123 0.037318796 0.002679945
-0.044324342 0.037596632 0.0022308335
-0.043017499 0.037778497 0.0018674999
0.010438764 0.037477292 0.002853794
0.011672815 0.036535375 0.0026421428
0.012625 0.036041498 0.0022489994
-0.045005001 0.037861001 0.003439999
-0.043984264 0.0380603 0.0030481245
-0.042265043 0.038297772 0.0027430318
-0.040495861 0.038952321 0.0027653112
-0.03902436 0.03936227 0.0022941367
0.0086035002 0.039087869 0.0028462592
0.0094877286 0.038266353 0.0025909184
-0.039776668 0.039672997 0.0035038337
-0.038492378 0.039875459 0.0029753244
-0.036925223 0.040500846 0.0026903949
-0.035249233 0.041078374 0.0024534548
-0.033872858 0.041248426 0.0020592858
0.0068038851 0.041036375 0.0027677426
0.0077654473 0.040095732 0.0027073999
-0.034700725 0.041632608 0.0031404244
-0.033060219 0.042214718 0.0027930085
-0.032026958 0.042834513 0.002309954
0.0045448947 0.042662762 0.0027731925
0.0059294063 0.041726377 0.0027167816
-0.032453001 0.043260999 0.0034879993
-0.031473976 0.043709595 0.0028916551
-0.029702967 0.044317391 0.0026651663
-0.0281926 0.044671699 0.0024310001
-0.026958 0.044836 0.0018479999
0.0014517142 0.044731047 0.0030296193
0.0027156435 0.043969702 0.0026764511
0.0038160004 0.043318335 0.0022930002
-0.027643356 0.045255799 0.00305644
-0.026036184 0.045923095 0.0027239856
-0.024543552 0.04639047 0.0023489525
-0.022990299 0.046536501 0.0020162
-0.00072985422 0.046391185 0.0027805211
0.0006472856 0.045435883 0.0026285714
-0.025280003 0.046884999 0.0033939991
-0.024355797 0.04708137 0.0032125681
-0.022383597 0.047488239 0.0027550773
-0.02091766 0.048044845 0.0023428411
-0.019586667 0.048359334 0.0018816665
-0.0036899997 0.048578501 0.0034575004
-0.002596362 0.047925964 0.002716474
-0.0015207729 0.047026228 0.0027159548
-0.021652 0.048678 0.0035540003
-0.02047416 0.049138322 0.0031765203
-0.01885679 0.04965768 0.0027214319
-0.016999323 0.049975969 0.0025347557
-0.015507498 0.050169133 0.0021431393
-0.005661312 0.05015168 0.0027158128
-0.0045672148 0.049330462 0.0027151345
-0.0034240002 0.048662856 0.0023047142
-0.018255001 0.050409 0.0035950008
-0.016822705 0.050573554 0.003325185
-0.015214963 0.050826959 0.0030211995
-0.013397883 0.051119279 0.0028517151
-0.011879445 0.05152446 0.0026695088
-0.0098733725 0.051661141 0.002894586
-0.0080167335 0.051233206 0.0027523595
-0.0066466145 0.050780818 0.0024661359
0.0033364003 -0.043303203 0.0036800001
0.0043543917 -0.043353699 0.0036954347
0.0063221161 -0.043392505 0.0037770381
0.007880087 -0.043444306 0.0036873044
0.012124778 -0.043294221 0.0037068895
0.013309875 -0.043305624 0.0036764992
0.0016820909 -0.041723184 0.0038310003
0.0026310633 -0.042251334 0.0040672803
0.0044974894 -0.042318847 0.0044977143
0.0062694047 -0.042313736 0.0044148876
0.0081353448 -0.042138185 0.0039057955
0.0099752629 -0.042017553 0.0040713768
0.011735642 -0.042346906 0.004379563
0.013524461 -0.042536303 0.0046056956
0.015384112 -0.042163108 0.0044836989
0.017067099 -0.042183317 0.0043808827
0.018866261 -0.042065773 0.0044260523
0.020652458 -0.042036612 0.0042939791
0.022350417 -0.041751727 0.0042472188
0.023603333 -0.041451499 0.0037078331
0.0013085274 -0.040416867 0.0040626158
0.0025968351 -0.040551651 0.0048381565
0.0045899688 -0.040991109 0.0052190004
0.0063552754 -0.040492021 0.0048426348
0.007974538 -0.040648028 0.004586292
0.0098269824 -0.040777419 0.0050319666
0.011401059 -0.041097119 0.0052305888
0.015757857 -0.041326717 0.0053285724
0.016980439 -0.041330066 0.0053068134
0.019151444 -0.041288108 0.0052442225
0.020607913 -0.041239355 0.0051606758
0.02277302 -0.041180763 0.0050272113
0.024233535 -0.040665817 0.0045692124
0.025935452 -0.040063351 0.0043966272
0.027796935 -0.039721873 0.0037174004
0.029653158 -0.03975974 0.0037309476
-0.002144875 -0.038174339 0.0037312079
-0.00079575187 -0.038499877 0.0040544425
0.00084664091 -0.038805172 0.004601419
0.0022611427 -0.039235197 0.0051236576
0.0062497379 -0.039318547 0.0052308822
0.0073835002 -0.039557002 0.0053290008
0.026781632 -0.039486267 0.0048115789
0.027762275 -0.039212506 0.0045823613
0.029773364 -0.03901495 0.0046324036
0.031497281 -0.038785324 0.0044512087
0.033154726 -0.038369559 0.0042858152
0.034420747 -0.037885502 0.0039347503
-0.0043279999 -0.036209472 0.0036952116
-0.0025851585 -0.036802422 0.0039985357
-0.00086934865 -0.036971413 0.0048354622
0.00026641676 -0.0374448 0.0052267509
0.032232337 -0.037742332 0.005363333
0.033601265 -0.037384249 0.0051065511
0.035077218 -0.036902282 0.0045559835
0.036288559 -0.036252003 0.0039223759
-0.027237168 -0.034402668 0.0037788327
-0.026004968 -0.034557756 0.004049934
-0.024141762 -0.034644097 0.0042078467
-0.022789001 -0.034496367 0.0039585917
-0.020891288 -0.034256719 0.0036552851
-0.018829877 -0.034285247 0.0037089996
-0.017028222 -0.034378335 0.0038226673
-0.015232541 -0.034450192 0.0039079185
-0.013281999 -0.034802649 0.0040424019
-0.011962773 -0.034890052 0.003818199
-0.0058965432 -0.034701269 0.003877695
-0.0045101703 -0.035063114 0.004064349
-0.002799812 -0.035067689 0.0045271474
-0.0013446774 -0.03551966 0.0051580477
0.035744365 -0.035811909 0.0052450011
0.036971182 -0.035133868 0.0047114203
0.03837242 -0.034474768 0.0042451397
0.039791498 -0.034238502 0.0037409987
-0.029219763 -0.032795355 0.0038921768
-0.027772658 -0.033216428 0.0043840748
-0.026115285 -0.033576179 0.0048644994
-0.024230253 -0.033906605 0.005092775
-0.022406492 -0.033723589 0.004688709
-0.020925574 -0.033652361 0.0044502574
-0.01888538 -0.033605471 0.0046068216
-0.01703524 -0.033558551 0.0048943153
-0.0152014 -0.033369977 0.0047522765
-0.013505361 -0.033292141 0.0046148198
-0.011999412 -0.033296615 0.0041448637
-0.0095412573 -0.032719135 0.0039506853
-0.0081215324 -0.033142664 0.0039870408
-0.0063606487 -0.033295676 0.0042272252
-0.004409859 -0.033331338 0.0044652913
-0.003082165 -0.033539839 0.0050798231
0.037753001 -0.034134999 0.005287501
0.038620621 -0.033923283 0.0049989619
0.040467314 -0.033556446 0.0045793103
0.042215928 -0.032985553 0.0044249166
0.043657504 -0.032695532 0.004050375
-0.031036736 -0.030972201 0.0038587342
-0.029725425 -0.031565428 0.0043966174
-0.028217556 -0.032094717 0.0050823996
-0.014824666 -0.032340836 0.0053391675
-0.01322217 -0.031919383 0.0050029871
-0.011775275 -0.031603996 0.0046799583
-0.0098502245 -0.031521693 0.0043873242
-0.0081868581 -0.031579085 0.0042927228
-0.006420352 -0.03150139 0.0047968328
-0.0045812288 -0.031602658 0.0050490005
-0.0033847271 -0.032219004 0.0052212738
0.042838998 -0.032342747 0.0051894998
0.044394407 -0.031583678 0.0045574591
0.045773305 -0.031039065 0.0040683737
0.047445711 -0.030835634 0.0040036156
0.048730999 -0.030711999 0.0037029996
-0.032914311 -0.02913085 0.0038550003
-0.031346716 -0.029602874 0.0044713928
-0.030074418 -0.02995763 0.0049829786
-0.011107842 -0.029735316 0.0052206251
-0.0098438878 -0.029781984 0.0045276126
-0.0081209829 -0.029710121 0.0046821777
-0.0065728258 -0.029840816 0.0051568025
-0.0049940003 -0.030522835 0.005377667
0.044698287 -0.030405711 0.0052223583
0.045936644 -0.030241998 0.0048465384
0.047859114 -0.030085042 0.0048393509
0.049129449 -0.029660804 0.0041961609
-0.034794077 -0.027468607 0.0038518931
-0.033314537 -0.02783921 0.0044036545
-0.031763691 -0.028262034 0.0050243079
-0.011273506 -0.027875561 0.0050655906
-0.0099338377 -0.027904129 0.004546233
-0.0085950224 -0.028167844 0.0051597552
0.048584998 -0.028794998 0.0052480018
0.049656726 -0.027794305 0.0047279913
0.051020451 -0.027382968 0.0039991667
0.052660123 -0.027093623 0.0036931247
-0.038085002 -0.0253972 0.0037428003
-0.036696557 -0.025837237 0.0041258964
-0.035220116 -0.026182286 0.0046413797
-0.03364221 -0.026519386 0.0051008211
-0.01328369 -0.02572873 0.0052745962
-0.011692867 -0.025991928 0.0049237036
-0.010161037 -0.026172139 0.0048013288
-0.0089389998 -0.026861999 0.0053405007
0.050306998 -0.026982 0.0050830012
0.051280882 -0.026574586 0.0048147999
0.053104151 -0.02624754 0.0045408164
0.05476385 -0.025736582 0.004367596
-0.040156323 -0.023688782 0.0039889379
-0.038728762 -0.02417504 0.0044468106
-0.037120275 -0.024581127 0.0049979999
-0.035831753 -0.025064249 0.0052662501
-0.014785683 -0.024007158 0.0052946131
-0.013406848 -0.024303468 0.0051077297
-0.011859355 -0.024440182 0.0049361894
-0.010499437 -0.024978625 0.0051927501
0.055500813 -0.024898997 0.0047414186
0.056475766 -0.023996061 0.004362864
-0.043524247 -0.021811249 0.0037197496
-0.041992307 -0.022241168 0.0043003568
-0.040350452 -0.022863021 0.0047212089
-0.039161518 -0.023157516 0.0050726547
-0.016463593 -0.022151496 0.0052741817
-0.015293109 -0.022382224 0.0051804008
-0.013673029 -0.022645449 0.005022048
-0.0124628 -0.023259399 0.0053160004
0.057212409 -0.023048591 0.0046353061
0.058057051 -0.022267019 0.0045362879
-0.045366284 -0.019986931 0.0038414288
-0.043988813 -0.020598037 0.0043271454
-0.04258164 -0.021023352 0.0049713873
-0.01630578 -0.021064777 0.0053308895
-0.01554262 -0.020795783 0.005214137
-0.014127485 -0.021245254 0.005178628
0.058970369 -0.020912675 0.004502079
0.059644554 -0.020230249 0.0042942041
-0.045423076 -0.018861407 0.0040324582
-0.044648338 -0.018932404 0.004877246
-0.01564602 -0.019335944 0.0053265081
0.060256869 -0.018982124 0.0043538348
-0.046891 -0.016463 0.003672
-0.045759752 -0.017086992 0.0044037155
-0.044771381 -0.017454056 0.0050271596
0.060648952 -0.016991409 0.0044610156
-0.047078528 -0.015087211 0.0039509735
-0.045947488 -0.015467318 0.004724015
0.060948484 -0.015926359 0.0048137391
0.061768331 -0.015118235 0.0044936081
-0.047426727 -0.013490129 0.0041743368
-0.046341188 -0.013635913 0.0050099567
0.062317234 -0.013450709 0.0046672076
0.063052803 -0.0129418 0.0037038003
-0.048810888 -0.011084778 0.0038628886
-0.047766756 -0.011734504 0.0046290089
-0.046716001 -0.0124275 0.005302499
0.06197748 -0.01193727 0.0047048121
0.063065998 -0.012568 0.0036769982
-0.048995547 -0.009831856 0.0041072387
-0.048085704 -0.0099772681 0.0049499748
0.062052842 -0.0098853046 0.004409709
-0.04911324 -0.0080858758 0.0042845178
-0.048249312 -0.0081073847 0.0051413849
0.06215886 -0.0081022447 0.0044114743
0.063010998 -0.0073020002 0.0036739993
-0.049358826 -0.0062566511 0.0041387388
-0.048224002 -0.0063281911 0.0051225238
0.062586188 -0.0064506312 0.0047787186
0.06331981 -0.0061732722 0.0040441221
-0.049188092 -0.0045325994 0.0043075341
-0.04826032 -0.0043857899 0.0051454222
0.062852249 -0.0047893752 0.0052158763
0.063894257 -0.0045829145 0.0043720282
0.064911 -0.0038019996 0.0037140015
-0.049226768 -0.0025288737 0.0044971989
-0.04834364 -0.0026454334 0.005229
0.064165808 -0.0025105069 0.0047418899
0.065197416 -0.0022852356 0.0039090882
-0.049351983 -0.0010433231 0.00426216
-0.048338197 -0.0013175113 0.0051460662
0.064257778 -0.0010065676 0.0048761251
0.065257818 -0.00091228582 0.0040608239
-0.050649587 0.0013622354 0.0037951185
-0.049510289 0.00088679238 0.0045648571
0.06431549 0.00093881227 0.0045996904
0.064972542 0.00016733333 0.0040995418
-0.050828941 0.0026895157 0.0038631281
-0.049585056 0.0026825978 0.0048357463
0.063741468 0.0027204675 0.0044346843
-0.050909296 0.004613583 0.0040388349
-0.049929075 0.0045122905 0.0049555064
0.063446142 0.0044064024 0.0044247126
-0.05081217 0.0064292056 0.0039478578
-0.050037272 0.0064591235 0.0048344582
0.061128501 0.0070855003 0.0041274996
0.062342271 0.0063193967 0.0045536035
0.063101247 0.0055498742 0.0047551254
-0.054270055 0.0086895507 0.0038091503
-0.053034183 0.0082922755 0.0040156576
-0.051347926 0.008187674 0.0045247567
-0.050236393 0.0075644022 0.0049377908
0.058786917 0.0086378073 0.0044234884
0.06014628 0.0077953003 0.0046124249
-0.055976748 0.010567125 0.0037416248
-0.054739352 0.0099945944 0.0045703868
-0.053071849 0.0099962354 0.0048269844
-0.051684178 0.0097408453 0.0048634927
0.055697858 0.010758286 0.0043635722
0.056705799 0.010022896 0.0045991531
0.057912778 0.0091943946 0.00448506
-0.057788752 0.012504499 0.0037574999
-0.056558218 0.011818601 0.0043265261
-0.055570096 0.011026865 0.005033683
0.053407151 0.012278728 0.0044274237
0.054948401 0.011274522 0.0045193075
-0.058315076 0.013655515 0.0042290129
-0.057152014 0.013007751 0.0048218207
0.05007742 0.01423825 0.0046116672
0.05126524 0.013570669 0.004491399
0.052519683 0.012822656 0.0044162073
-0.059781313 0.015445968 0.0040561822
-0.058833525 0.015172873 0.0048679444
0.046205889 0.016102916 0.0046771266
0.047646653 0.01547698 0.0045206384
0.049249496 0.014699286 0.0044633099
-0.061374336 0.017834 0.0038123331
-0.060278181 0.017193666 0.0045348504
-0.05919493 0.016663309 0.0052264621
0.042768195 0.017663278 0.0046256054
0.044147272 0.016941845 0.0045689917
0.045469012 0.016347248 0.0046339626
-0.061703879 0.019031983 0.0042489995
-0.060595334 0.018607369 0.0050057177
0.039519001 0.019669 0.0052600009
0.040644541 0.019249389 0.0044822032
0.041924842 0.018341754 0.0044781128
-0.063204542 0.021163462 0.0038273854
-0.062137261 0.020697458 0.0045895968
-0.061058801 0.020292202 0.0052621998
0.035753999 0.021595001 0.0053809984
0.036923457 0.021281628 0.0047100578
0.038609825 0.020469323 0.0044384408
0.0398128 0.0199384 0.0039201993
-0.063502215 0.022630047 0.0041291849
-0.062272053 0.022583794 0.0049930904
0.033446677 0.023010273 0.0047537028
0.03525595 0.022177214 0.0045051589
0.036287561 0.021816039 0.0041632797
-0.064844005 0.024841335 0.0037723333
-0.063837118 0.024291083 0.0044486206
-0.062570952 0.024079697 0.0051720603
0.030287998 0.025019336 0.0050616679
0.031431332 0.024433391 0.00455298
0.032698885 0.023643531 0.0043789423
-0.065241918 0.026265427 0.0040851249
-0.063926309 0.026013825 0.0050351867
0.02810386 0.026579296 0.0046504191
0.029571099 0.025704067 0.0044101006
0.030662999 0.025248501 0.0037505
-0.065615349 0.02790395 0.0043839682
-0.064279236 0.02767263 0.0052188942
0.024910055 0.02856564 0.0045359437
0.02618093 0.027779754 0.0045148577
0.027284769 0.027195686 0.0042927437
-0.065644935 0.029673925 0.0044363351
-0.064575739 0.029921114 0.0052567776
0.019440001 0.030418878 0.0051285001
0.020733152 0.030134838 0.0049516582
0.022530407 0.029881993 0.0044845911
0.024029195 0.029188786 0.0043238816
-0.065091372 0.031256285 0.0042574438
-0.064303786 0.031781018 0.0050581372
0.017320648 0.031954192 0.0048243427
0.018776178 0.031176653 0.0046667135
0.020544115 0.031042652 0.0039645075
0.021849748 0.03070575 0.0037630002
-0.063752271 0.032919839 0.004494153
-0.062250968 0.033591874 0.0048613437
-0.060175598 0.0340777 0.0043680621
-0.058489386 0.034143135 0.0047141025
-0.057576999 0.03418 0.0047699986
0.014232778 0.034076553 0.0047065564
0.015316921 0.033407975 0.0047126226
0.016556742 0.032772612 0.0044075414
-0.05982976 0.034238417 0.0050017652
-0.058416571 0.034398366 0.0044027623
-0.056820758 0.03484204 0.0045249499
-0.054957896 0.035450164 0.0044784476
-0.053279478 0.035763778 0.0043119998
-0.051917002 0.035926744 0.0037865003
0.012135149 0.035656378 0.0045432779
0.013444747 0.034768242 0.0046270997
0.014486 0.034259997 0.0045095002
-0.052660931 0.036119781 0.0049799299
-0.051240828 0.036290471 0.0044449116
-0.049501993 0.036734678 0.0044899029
-0.047640536 0.037270758 0.0044749114
-0.046327952 0.037636664 0.004285723
0.010200525 0.037219808 0.0047252523
0.011248644 0.036342517 0.0046263691
-0.045567062 0.037978396 0.0046749092
-0.044061311 0.038465355 0.0045275064
-0.042302173 0.038962219 0.0045654476
-0.040915955 0.039344002 0.0041469098
0.0084018735 0.038938507 0.0045422646
0.0093142753 0.03808837 0.0045155995
-0.040193316 0.039936397 0.0047124545
-0.038663018 0.040476605 0.0044796378
-0.037178583 0.041089833 0.0042095603
-0.035840001 0.041350998 0.0036090005
0.0065359194 0.040765755 0.004600788
0.0074861757 0.039878953 0.0045980243
-0.036593828 0.041678641 0.0048137857
-0.035114266 0.042217392 0.0044850414
-0.033511616 0.042823039 0.0041618827
0.0032657695 0.042888541 0.0048315772
0.0044439081 0.042194672 0.0045159236
0.0056122858 0.041565858 0.0041834288
-0.032858659 0.043466307 0.004776923
-0.031643119 0.044142213 0.0043849624
-0.029996838 0.044798356 0.0040322407
0.00097914506 0.044503141 0.0047088549
0.002435196 0.043606237 0.0043848474
-0.029635644 0.045328338 0.0048914305
-0.027925679 0.045836411 0.0045599034
-0.026449611 0.046482675 0.0040856786
-0.0019233333 0.046750002 0.0052013341
-0.0009066668 0.046062753 0.0045457818
0.00025330007 0.045150597 0.0043892004
-0.025747027 0.047277912 0.0046010744
-0.024401881 0.047831938 0.004438424
-0.022784501 0.048312411 0.0039573638
-0.0039506005 0.048418105 0.0048242002
-0.0027714688 0.047658376 0.0045662085
-0.0017043336 0.046879333 0.0040606661
-0.023668004 0.0487964 0.0052578012
-0.022301245 0.049206365 0.0047103898
-0.020878114 0.049870998 0.0043643145
-0.019390222 0.050298661 0.0038373331
-0.0058582863 0.050026037 0.0046714894
-0.0047886255 0.049107708 0.0045566368
-0.020166188 0.050681751 0.0048884377
-0.018779516 0.050919347 0.0045887358
-0.016964309 0.051244047 0.0044170795
-0.015499439 0.051706545 0.0043770922
-0.013651279 0.051938605 0.0039611142
-0.011916249 0.052138872 0.0036932495
-0.0097233327 0.052104738 0.0037567336
-0.008148402 0.051612597 0.0043907627
-0.0067351907 0.050667785 0.0044080955
-0.015079962 0.052349079 0.0051630773
-0.013389822 0.052545525 0.0047196313
-0.011895886 0.052629851 0.0046119126
-0.0099034905 0.052626178 0.0046307007
-0.0089336671 0.052233335 0.0046496671
0.013668191 -0.041602813 0.0055886195
0.014613333 -0.041547667 0.005525168
0.0033674545 -0.039896637 0.0055418191
0.0043345909 -0.040044181 0.0056633665
0.0055432227 -0.039818998 0.0054434454
0.0086531667 -0.039734587 0.0055576675
0.0098978905 -0.039936602 0.0055513731
0.011644861 -0.040260896 0.0058856774
0.013547813 -0.040585283 0.0063598156
0.015253338 -0.040726155 0.0063715423
0.017076008 -0.040771089 0.006251968
0.018908571 -0.040571369 0.0063097747
0.0206169 -0.040443379 0.0062482813
0.02246445 -0.040576056 0.0062570926
0.024212807 -0.040042911 0.0061525567
0.025823003 -0.039743472 0.0057163001
0.0015578571 -0.037989289 0.0055601439
0.0029563832 -0.038617551 0.0058751367
0.0045027533 -0.038643286 0.0060217977
0.0061302986 -0.038613252 0.0058083064
0.0081814155 -0.038647391 0.0060260454
0.0097751068 -0.038630284 0.0058180331
0.011498521 -0.038854882 0.0066228546
0.012938751 -0.03943 0.0071149999
0.02476158 -0.039454732 0.0069004213
0.026201671 -0.03936756 0.0064004143
0.02800631 -0.03870023 0.0062843198
0.029779937 -0.038295083 0.0062717432
0.031011002 -0.03799979 0.0057586846
-0.00018983339 -0.036282167 0.0054760012
0.0010242978 -0.036852065 0.0059273657
0.0027761459 -0.036898762 0.0067203301
0.0044852938 -0.036942706 0.0065854131
0.0064102123 -0.036913268 0.0068602115
0.0081823859 -0.036940385 0.0065153982
0.0096614053 -0.037008632 0.006769273
0.010950625 -0.037654251 0.0070262514
0.0304306 -0.037714001 0.0068813004
0.031577926 -0.037488066 0.0064566731
0.033326183 -0.036866758 0.0061244136
0.034598507 -0.036289364 0.0059078564
-0.00072406174 -0.034914598 0.0057417732
0.00084386719 -0.035039429 0.0065007736
0.0025649702 -0.035293687 0.0069797295
0.0042482833 -0.035551269 0.0070406222
0.0068872995 -0.035826802 0.0070075491
0.0080083683 -0.03575258 0.0070420518
0.0091599999 -0.035969499 0.0071860002
0.035398751 -0.035667807 0.0063682469
0.036734842 -0.034867454 0.0061315242
-0.025764653 -0.032773107 0.00570169
-0.024327522 -0.033071235 0.0058656083
-0.022627167 -0.032914437 0.0059670322
-0.020788595 -0.032664225 0.0058855
-0.01893368 -0.032698195 0.0057800417
-0.017083576 -0.0327667 0.0056379507
-0.015927002 -0.032488499 0.0055357497
-0.0024287347 -0.03306663 0.0056962641
-0.0009307522 -0.033311203 0.0062794546
0.00061271421 -0.033333719 0.0069686514
0.0019519998 -0.034110002 0.007189001
0.037653588 -0.034011461 0.0062605417
0.038428433 -0.033404764 0.0061051561
0.040361438 -0.032793649 0.0058468129
0.0415705 -0.032502502 0.0056127496
-0.028994834 -0.030817833 0.0055196672
-0.027693246 -0.031349756 0.005928677
-0.02609711 -0.031636219 0.0065208152
-0.024194002 -0.03178259 0.0069300733
-0.022549819 -0.031933773 0.006953822
-0.020606251 -0.031804606 0.0068322811
-0.018811857 -0.031720892 0.0068007195
-0.01710882 -0.031528171 0.0064408993
-0.015345223 -0.031476617 0.0060121762
-0.013627738 -0.03110908 0.0058522853
-0.012419135 -0.030885071 0.0055808011
-0.0038163573 -0.030972287 0.0055500725
-0.0027467783 -0.031434793 0.0060580508
-0.0011101929 -0.031621329 0.0068077333
0.00013966676 -0.032282338 0.0071363328
0.039429996 -0.032221336 0.006979445
0.040549245 -0.032015182 0.0068162596
0.04238997 -0.031741593 0.0063873585
0.043708026 -0.031219248 0.0061699999
-0.029331272 -0.029595595 0.005953758
-0.028085619 -0.029908534 0.006732482
-0.026800334 -0.030273333 0.0071113342
-0.018197751 -0.030321417 0.0071435831
-0.016914101 -0.029898472 0.006824506
-0.015397317 -0.029566851 0.0064971545
-0.013446154 -0.029755669 0.0062602288
-0.012103564 -0.029690553 0.0057575884
-0.0073525002 -0.028856 0.0054405006
-0.0059994129 -0.029253045 0.0055356277
-0.0044955793 -0.029631332 0.0058499463
-0.002719817 -0.029782921 0.0066947001
-0.0015100003 -0.030494999 0.0071503334
0.044168323 -0.029928852 0.0066090161
0.045909084 -0.029369039 0.0063743051
0.047627695 -0.029326148 0.006096472
-0.032503001 -0.027005998 0.0054570017
-0.031283572 -0.027465826 0.0058586281
-0.029703826 -0.028058564 0.006582167
-0.028739002 -0.028769998 0.0071119992
-0.018028 -0.027166998 0.0071949987
-0.016993828 -0.027261654 0.0070201377
-0.015317507 -0.02788841 0.0067605334
-0.01341134 -0.027817767 0.0060271462
-0.012247627 -0.027993606 0.0055536251
-0.0077964026 -0.027741974 0.0058130482
-0.0062872046 -0.027901528 0.0062163821
-0.0045536379 -0.0281626 0.00682334
-0.0033191433 -0.028495928 0.0069875
0.045970999 -0.028785 0.0071689999
0.04827537 -0.028523639 0.0065542283
0.049436197 -0.027603768 0.0062971511
-0.034649432 -0.025394859 0.0055697155
-0.033137351 -0.025852913 0.0059282184
-0.031640373 -0.026240008 0.0065790256
-0.030261112 -0.026772333 0.0070155561
-0.019868001 -0.025261 0.0071765007
-0.018578932 -0.025871666 0.0069724903
-0.017158415 -0.026185472 0.0066279569
-0.015223298 -0.02607196 0.0060584289
-0.01357495 -0.026476512 0.0056494507
-0.012354 -0.026966 0.0054210005
-0.0092932284 -0.025637183 0.005660546
-0.0081366058 -0.026109299 0.0063815466
-0.0066482644 -0.026520263 0.0069779805
0.050047893 -0.0267109 0.0065177558
0.05138918 -0.025915451 0.0063870931
0.053121708 -0.025456224 0.0062571303
0.054298226 -0.025399391 0.0058044451
-0.037949003 -0.0234975 0.0054845
-0.036701966 -0.023883145 0.0058255354
-0.035175174 -0.024313916 0.0062666493
-0.033598658 -0.024713105 0.0067062071
-0.032341 -0.024916999 0.0071859984
-0.019860668 -0.025007334 0.0071013337
-0.019063912 -0.024259852 0.0066956845
-0.01713285 -0.024297165 0.0061027589
-0.015397661 -0.024627602 0.0056465575
-0.01122194 -0.02373606 0.0056889397
-0.0098554827 -0.024232557 0.0061462983
-0.0083755506 -0.024432383 0.006885922
0.05364009 -0.025042549 0.00692491
0.05502471 -0.024430795 0.0064408677
0.056183469 -0.023681527 0.0060095889
-0.040123876 -0.022118643 0.0057651293
-0.038789056 -0.022500541 0.0061895889
-0.037030309 -0.022812961 0.00672244
-0.035664003 -0.023245143 0.007015286
-0.018668389 -0.022613987 0.0065612695
-0.017298419 -0.022407955 0.0057075615
-0.015294001 -0.022188999 0.0054203337
-0.012870571 -0.022127541 0.0056490009
-0.011752962 -0.02250834 0.0060091056
-0.010112664 -0.022699725 0.0068133897
-0.0089140004 -0.023296999 0.0071349991
0.057144072 -0.022432566 0.0065115299
0.057761196 -0.022197112 0.005790879
-0.043232001 -0.019896999 0.0054059988
-0.042103864 -0.020251514 0.005921897
-0.040757757 -0.020683879 0.006477959
-0.039338417 -0.021302832 0.0069830841
-0.018445581 -0.020870781 0.0067991
-0.017228307 -0.02071579 0.0059767584
-0.015000345 -0.020548744 0.0054883682
-0.013452183 -0.020490685 0.0061084288
-0.012087948 -0.021030284 0.0067161825
0.057470229 -0.021458833 0.0070704445
0.058375552 -0.020854557 0.0064054346
0.05949467 -0.019937333 0.0056200004
-0.043729655 -0.018684275 0.0059416322
-0.042550061 -0.018935839 0.0065329005
-0.041199669 -0.019621331 0.0070226667
-0.018332222 -0.018928166 0.0069762776
-0.017011307 -0.018892666 0.0061533321
-0.015110706 -0.018790206 0.0056348788
-0.013686935 -0.018932 0.0065042591
-0.012580999 -0.019669998 0.007166001
0.059204616 -0.019448807 0.0068315775
0.059870727 -0.018823944 0.0061968542
-0.045088146 -0.016301285 0.0054972861
-0.043882664 -0.017006854 0.0062521989
-0.042913742 -0.017514084 0.0070316852
-0.018125834 -0.017710334 0.007139001
-0.017062472 -0.016957732 0.0066223298
-0.015343521 -0.016998632 0.0061174994
-0.014028697 -0.017483324 0.0067588366
0.060231168 -0.017028656 0.0063178036
-0.045246046 -0.014906635 0.005581636
-0.044253498 -0.015317779 0.00630798
-0.017026711 -0.015232454 0.006883617
-0.015677374 -0.015498572 0.006698566
0.060740564 -0.015616104 0.0064679421
0.061504263 -0.014926637 0.0059414888
-0.045505729 -0.013367046 0.0059562903
-0.04439244 -0.013673863 0.0067599113
-0.017077513 -0.014041148 0.0071218507
-0.016136002 -0.014321 0.0071062492
0.060908306 -0.013515717 0.0068884366
0.061794937 -0.013694038 0.0058468683
-0.046972401 -0.0114272 0.0054979008
-0.045959201 -0.011837616 0.0061014518
-0.044566385 -0.011816324 0.0069686114
0.060898572 -0.011390198 0.006438558
0.061518062 -0.011917801 0.0058262176
-0.047141131 -0.0097243758 0.0056550424
-0.045903977 -0.0097762747 0.0064152242
-0.044824909 -0.010232364 0.0070477277
0.060796183 -0.010049177 0.0064776451
0.061263725 -0.0098938188 0.005554819
-0.047278635 -0.0081677642 0.0058075693
-0.045987677 -0.0082398849 0.0065738414
-0.044923 -0.0085819997 0.0071724998
0.060763631 -0.0081448257 0.0066259783
0.06141597 -0.0079293754 0.0058396868
-0.04736346 -0.0062658079 0.0057110004
-0.045875203 -0.0062327399 0.0066573457
0.060770754 -0.0064511583 0.0068448405
0.061752856 -0.006317595 0.0058776666
-0.047379129 -0.0043071876 0.0058087492
-0.04595362 -0.0045007509 0.0067391358
0.061022874 -0.0049670003 0.007003251
0.061962549 -0.0044314428 0.0061493595
-0.047444448 -0.0026373435 0.0059042806
-0.046243764 -0.0027456784 0.0067659994
0.062386066 -0.0028252122 0.0064324038
0.063360967 -0.0022590416 0.0057118754
-0.047488581 -0.0009524253 0.006105938
-0.046259522 -0.00088565215 0.0069446731
0.062800832 -0.0012122779 0.0069402778
0.063590586 -0.00079771056 0.0061559379
-0.048673227 0.0012706666 0.0054984451
-0.047760013 0.0009175312 0.0063983607
-0.046460357 0.00076687097 0.0070169037
0.063829921 0.0010460002 0.0061728419
-0.048973158 0.0031146747 0.0059028724
-0.047832124 0.0026467342 0.0066317255
-0.046457563 0.0027248124 0.0070672813
0.063831978 0.0025404284 0.0060092532
-0.049312603 0.0042995745 0.005745538
-0.047567945 0.00466154 0.0063758134
-0.046261098 0.0043613678 0.0068582627
0.063531846 0.0044136364 0.0062739644
-0.049288575 0.0064256345 0.0060342671
-0.047911789 0.0059214202 0.0067352522
-0.046748001 0.0054830001 0.0071969992
0.062394634 0.0064677089 0.0063742553
0.063077167 0.0056151669 0.0062439996
-0.050886009 0.0084561193 0.0058747181
-0.049853865 0.0076919748 0.006516838
0.058879923 0.0087360423 0.0061535421
0.060344115 0.0078739803 0.0063148076
0.061384503 0.00726075 0.0062332512
-0.054310158 0.010432468 0.0057106162
-0.05313063 0.01054158 0.0058901291
-0.051419854 0.0098967822 0.0060707312
0.055671748 0.010751626 0.0061311261
0.056663025 0.010111882 0.0061802818
0.058045831 0.0092608007 0.0063387672
-0.055985861 0.012374429 0.0056495732
-0.054832108 0.011660363 0.0061913836
-0.05287455 0.011105573 0.0066760695
-0.051934574 0.010909095 0.0069648577
0.053356953 0.012182741 0.0062514339
0.054790728 0.011317468 0.0063252752
-0.057709001 0.014312 0.0054219989
-0.056496438 0.013526316 0.0059548412
-0.055169001 0.013376241 0.0067755789
0.0498375 0.014137188 0.0062689688
0.051390339 0.013283877 0.0063544274
0.052426644 0.01272982 0.0061970009
-0.058088753 0.015508501 0.0056674164
-0.05676017 0.015178386 0.0063403379
-0.055307321 0.015308455 0.0070152273
0.04616721 0.015878089 0.0064512463
0.04768027 0.015175818 0.0062006861
0.048943501 0.014619227 0.0062400009
-0.0583768 0.017108528 0.0058732466
-0.056669913 0.017008301 0.0067151813
-0.055578835 0.016884834 0.0071393335
0.042638399 0.017637137 0.0063920394
0.044150144 0.016965441 0.0062359003
0.045361165 0.016341768 0.0059901671
-0.059904538 0.019041866 0.0056061824
-0.058593959 0.018977329 0.0062196385
-0.056938466 0.018908627 0.0069022276
0.037670337 0.019729335 0.0071783341
0.038846865 0.01933362 0.0067191739
0.040573105 0.018576628 0.0065493602
0.041808829 0.018142851 0.0062932349
-0.060197499 0.020711277 0.0057577221
-0.058482241 0.020653207 0.0064516929
-0.057122197 0.020711051 0.0070404764
0.034056336 0.021532334 0.0071033328
0.035298347 0.021383656 0.0066178287
0.036945455 0.020647513 0.0064299577
0.038274281 0.020037718 0.0060471199
-0.061404482 0.022953914 0.0055011469
-0.060328577 0.022549434 0.0058624847
-0.058488488 0.022451019 0.0064541912
-0.056972768 0.022569971 0.0070101162
0.032158848 0.02322685 0.006540847
0.03319649 0.022468729 0.0063540917
0.034867004 0.021806933 0.0058874134
-0.061783738 0.024411768 0.0056463042
-0.060412984 0.024274182 0.0060594748
-0.058433648 0.024325714 0.0066505708
-0.057206195 0.024089653 0.0070466497
0.029938878 0.024790918 0.0064192205
0.031402688 0.023860143 0.0061800531
-0.063180946 0.026443707 0.0054426477
-0.062252451 0.026014257 0.0057045044
-0.060323507 0.026127402 0.0064215772
-0.05870463 0.025993738 0.0069105867
-0.057432003 0.025225 0.0071989996
0.026816834 0.026822001 0.0069461665
0.027934512 0.02622317 0.0063267802
0.029191891 0.025453372 0.0060040746
-0.063472293 0.027975442 0.0055718236
-0.062046345 0.027867852 0.0060482025
-0.060219217 0.027914923 0.0068576937
-0.05922734 0.027374668 0.0071473345
0.024571061 0.028288906 0.0064594438
0.026002454 0.027451722 0.0062912321
0.027115665 0.027069669 0.0055559999
-0.063668542 0.029724648 0.0056967987
-0.06206543 0.029751752 0.0063770404
-0.060586158 0.029842524 0.0069683683
0.019441828 0.030433601 0.0056976569
0.020839982 0.030320862 0.0063969516
0.022395238 0.029697228 0.0062667141
0.023768686 0.028959656 0.0062638614
-0.063603684 0.03121959 0.00558948
-0.062135987 0.031526063 0.0059548337
-0.060427766 0.031543609 0.0066928137
-0.059284501 0.032251999 0.0071240002
0.017583646 0.031957846 0.0058645294
0.018838827 0.031220678 0.0062356731
0.020079669 0.030749777 0.0068840561
-0.061664071 0.033205558 0.00561288
-0.06031486 0.033531033 0.0061830492
-0.058853395 0.033648323 0.0067919465
0.015687512 0.033794235 0.0062395739
0.016815722 0.032966029 0.0064085349
0.018005 0.032487001 0.0071430011
-0.060014907 0.034277834 0.0057242666
-0.058344502 0.034405138 0.0061599547
-0.056694597 0.035019267 0.0063965474
-0.055162862 0.035767339 0.0064153564
-0.0538215 0.035967998 0.0055280002
0.013670169 0.035328377 0.0061815036
0.014859573 0.034529816 0.0065375362
-0.054214008 0.036062539 0.0067342315
-0.052987292 0.0363543 0.0064383466
-0.05135338 0.036731921 0.0063061784
-0.04946205 0.037160415 0.0062847557
-0.047846701 0.037553966 0.0063242433
0.010209709 0.037594579 0.0058914996
0.011735378 0.036884055 0.0063084848
0.012923332 0.036273554 0.0066562118
-0.047062602 0.037887599 0.0068198005
-0.045855254 0.038178522 0.0062556053
-0.044132125 0.038830038 0.0062719779
-0.042597063 0.039348621 0.0060020937
0.0081499461 0.038894098 0.0063189743
0.0096383207 0.038028043 0.0064364993
-0.041823145 0.039829653 0.0065661999
-0.040464319 0.040379256 0.00627102
-0.038921408 0.041041501 0.0061187185
0.005097636 0.041159317 0.0064507732
0.0064367102 0.040336095 0.0063474784
0.0073036002 0.039727297 0.0062300009
-0.038242694 0.041669648 0.0066166539
-0.036836125 0.042339828 0.0063957078
-0.03537409 0.042866085 0.0060162228
0.0029165479 0.04269788 0.0062882975
0.0042400886 0.041825999 0.0061974991
-0.034718834 0.043441419 0.0066134837
-0.033121936 0.044136349 0.0064730891
-0.032014467 0.044673804 0.0061451462
-0.00017853845 0.04478031 0.0067822319
0.00090123742 0.044077627 0.0062663988
0.0020938825 0.043385122 0.0058515887
-0.031190258 0.045252308 0.0064904355
-0.029532911 0.046014383 0.0062153935
-0.028251216 0.046507869 0.0060499995
-0.0021216925 0.046519503 0.0064703845
-0.0009788553 0.045647185 0.006163463
-0.027733831 0.047041066 0.0065631894
-0.026092136 0.0478913 0.0062169824
-0.024843922 0.048448831 0.0057847509
-0.004186634 0.048151027 0.0063006557
-0.0029754781 0.04727976 0.0061714211
-0.025520001 0.048689999 0.007003
-0.024275312 0.049165513 0.0064174524
-0.022663658 0.049940895 0.0060945521
-0.021493336 0.050281331 0.0055156676
-0.0059792642 0.049745061 0.0063634431
-0.0050596162 0.048823029 0.0061530191
-0.022061953 0.050742317 0.0067470009
-0.020650905 0.051394228 0.006339306
-0.018966632 0.051748592 0.0060721627
-0.017066605 0.051925998 0.0059357909
-0.016098624 0.052097496 0.0056666262
-0.0080027422 0.051491179 0.0062626214
-0.0069180392 0.050604537 0.0063134995
-0.01994 0.052239999 0.0071969992
-0.018755637 0.052327998 0.0070312736
-0.016855163 0.05244603 0.0068086218
-0.015388797 0.052848868 0.0064374879
-0.013435028 0.053520903 0.0064725224
-0.011714052 0.05360309 0.0063377842
-0.0099820998 0.05306058 0.0062451847
-0.0088997502 0.052240998 0.0065065008
-0.013495501 0.054001499 0.0071369996
-0.011771556 0.054016784 0.0070903343
0.014242332 -0.039690003 0.0073226653
0.015504428 -0.039825097 0.0073613334
0.016958458 -0.039845504 0.0074130008
0.018947069 -0.039767735 0.0073534669
0.020737998 -0.039740656 0.0073879506
0.022448739 -0.039799657 0.0074376515
0.023577999 -0.039620999 0.0073400019
0.012123238 -0.038297839 0.0074931853
0.013513316 -0.038671844 0.0078411466
0.015269631 -0.038819272 0.0081132427
0.01701723 -0.038797975 0.008348098
0.018861484 -0.038856987 0.0083281659
0.020790134 -0.039109487 0.0082607912
0.022496803 -0.039065752 0.0083374027
0.024337549 -0.038782988 0.0081264703
0.026105788 -0.038568325 0.0081765
0.02774452 -0.038184289 0.0080204234
0.029373525 -0.037950002 0.0074939523
0.0061580772 -0.03615154 0.0072348462
0.010273448 -0.036384448 0.0073891324
0.011765105 -0.036858372 0.0081075989
0.013310731 -0.037142932 0.0086333603
0.015136437 -0.037562061 0.0088727493
0.028343135 -0.037641801 0.0087673347
0.029744489 -0.037359577 0.0083499886
0.031521641 -0.036807623 0.0080687068
0.033043474 -0.036360055 0.0077073812
0.0031052502 -0.03442581 0.0072661252
0.0046503753 -0.034821939 0.0073424685
0.0063381279 -0.035127878 0.0074919686
0.0081339125 -0.034886785 0.0076153497
0.009889517 -0.035107475 0.0078725992
0.011243688 -0.035436269 0.0086282492
0.032188997 -0.035862502 0.0089140004
0.033583459 -0.035662796 0.0083611608
0.035125528 -0.035022799 0.0080770422
0.036406308 -0.034528717 0.0078718085
0.0013188 -0.032887243 0.0073365592
0.0027160551 -0.033250976 0.0074364846
0.0045459787 -0.033274673 0.0075591472
0.0064158952 -0.033319075 0.0079807425
0.0080724917 -0.033307023 0.0084274672
0.0097828535 -0.033417866 0.0086768093
0.0108565 -0.034124501 0.0089600002
0.035844002 -0.034172002 0.0088959998
0.037241362 -0.033625707 0.0083113741
0.038165506 -0.03286453 0.0077804672
-0.025431879 -0.030817248 0.0073335008
-0.024356723 -0.03093493 0.0073147751
-0.022507424 -0.031008996 0.0073047327
-0.020591373 -0.030969502 0.0073642964
-0.019183479 -0.03113272 0.0072726994
-0.00035688229 -0.030970942 0.0073462352
0.00092035701 -0.03139434 0.0076396423
0.0027918003 -0.031492904 0.0079489071
0.0045111375 -0.031449631 0.0080514429
0.0061852401 -0.031657085 0.0085680997
0.0078620482 -0.032212671 0.0089093335
0.0092396671 -0.032209169 0.0089735007
0.038896617 -0.031886343 0.0083060442
0.040435247 -0.031346142 0.0079314718
0.042138834 -0.030928826 0.0075755999
0.043258004 -0.030699667 0.0073110005
-0.027617425 -0.029210586 0.0075235576
-0.026074354 -0.029543787 0.0076972111
-0.024201015 -0.029807201 0.0077588395
-0.022626316 -0.029703924 0.007659331
-0.020694463 -0.029634694 0.0075470917
-0.018978499 -0.029720273 0.0075226263
-0.017489463 -0.029171299 0.0073817568
-0.0019856002 -0.029106332 0.0074349334
-0.00080723834 -0.029626574 0.0078008324
0.00095182931 -0.029622177 0.0083485534
0.0026420373 -0.02974163 0.0086051188
0.0043827291 -0.030107833 0.0086683184
0.0057452 -0.0304584 0.0089238007
0.041312803 -0.030532001 0.0086444002
0.042456295 -0.030089498 0.0083371829
