# .PCD v0.7 - Point Cloud Data file format
VERSION 0.7
FIELDS x y z
SIZE 4 4 4
TYPE F F F
COUNT 1 1 1
WIDTH 1275
HEIGHT 1
VIEWPOINT 0 0 0 1 0 0 0
POINTS 1275
DATA ascii
0.020686895 0.011891209 0.01729217
0.022569589 0.012408311 0.017184753
0.031696167 0.012358451 0.017100934
0.033293828 0.012180944 0.017227497
0.035154168 0.011736367 0.01719727
0.03645315 0.011042295 0.016825235
-0.024118096 0.013501406 0.016884372
-0.022758121 0.013555933 0.017732592
-0.0025251319 0.013636106 0.017813709
-0.0009217562 0.013440146 0.017405048
0.00088311121 0.013510001 0.016977932
0.0026742441 0.01339411 0.016647689
0.0043819286 0.013256713 0.016363788
0.0058305003 0.012841667 0.016238667
0.023321001 0.012641001 0.017342143
0.024205903 0.012946676 0.017157042
0.026041407 0.013317348 0.017346231
0.027871326 0.013419967 0.017224664
0.02969498 0.013035131 0.017288771
0.03101277 0.012705538 0.017732769
-0.025613109 0.015430376 0.016426502
-0.024375098 0.015336714 0.017034873
-0.023058798 0.015234166 0.017774038
-0.0042475336 0.015539802 0.017788434
-0.002737239 0.015271524 0.017460112
-0.00093129271 0.015428342 0.016927609
0.00090330769 0.015334271 0.016594386
0.0024537335 0.015032968 0.016364267
0.0038660001 0.014466 0.016208
-0.025603661 0.016809758 0.016458668
-0.024269637 0.017104784 0.017102398
-0.022641709 0.017381113 0.017607905
-0.0074862498 0.017817251 0.01795675
-0.0061529679 0.017249536 0.017798901
-0.0046080844 0.017120063 0.017369365
-0.0026684548 0.017011318 0.016910294
-0.0008793078 0.016929181 0.016545078
0.00061007153 0.016659072 0.016332431
0.0018140001 0.016256001 0.016204
-0.023723751 0.018199336 0.016487669
-0.022321314 0.018561317 0.017086979
-0.020972557 0.019251078 0.017371999
-0.019699 0.019790001 0.01792
-0.0092792492 0.019578751 0.017868249
-0.0080186604 0.01908714 0.017657824
-0.0062556886 0.018896405 0.01718967
-0.0046217586 0.019002605 0.01670811
-0.0027451997 0.018693481 0.016395679
-0.0012040001 0.018235002 0.016261859
-0.020370647 0.020193897 0.016660146
-0.019126758 0.020835713 0.017164091
-0.017743668 0.021466335 0.017817667
-0.0097004352 0.020997217 0.017644683
-0.0082594594 0.020652216 0.017113905
-0.0063612284 0.020595398 0.016473738
-0.0047665387 0.020271283 0.016328128
-0.018363835 0.021894209 0.01661421
-0.016962329 0.022536432 0.017149791
-0.015397078 0.022809779 0.01740508
-0.014225667 0.023347666 0.017929668
-0.011125499 0.0229718 0.017940702
-0.0099321092 0.0224519 0.0175898
-0.0084135765 0.022335056 0.016500341
-0.0071699996 0.021728002 0.016218001
-0.016423889 0.02356278 0.016480222
-0.015086763 0.024000332 0.016585721
-0.013582117 0.024381569 0.017223133
-0.011797113 0.024280868 0.017527223
-0.0099643953 0.024257341 0.017059661
-0.0089661991 0.023970403 0.016356802
-0.013172032 0.025633032 0.016543593
-0.012017803 0.025820808 0.01655676
-0.0099884635 0.025477892 0.016444752
-0.048674338 -0.032824665 0.01802
-0.04776109 -0.032858822 0.01802578
-0.048061997 -0.032295834 0.018015668
-0.045406502 -0.031624515 0.018026713
-0.044884 -0.031090001 0.0180142
-0.021794802 -0.028906599 0.0181168
-0.020667754 -0.029246802 0.018210391
-0.018791804 -0.029483005 0.018319592
-0.017097123 -0.029532555 0.018747024
-0.015401076 -0.029378526 0.019041076
-0.013736157 -0.029097896 0.01869666
-0.01236625 -0.02884925 0.018257
-0.023651002 -0.027200997 0.018077601
-0.022353938 -0.027745374 0.018322201
-0.020659389 -0.027766377 0.018677138
-0.018957624 -0.02795027 0.019025829
-0.017060716 -0.028284347 0.019572828
-0.015217858 -0.028477125 0.019684572
-0.013318626 -0.028391179 0.019472674
-0.011880443 -0.028213432 0.019174686
-0.0098867249 -0.027560037 0.018892923
-0.0083773788 -0.027225105 0.01832124
-0.0070425002 -0.02703 0.018031999
-0.024021737 -0.025881376 0.018281527
-0.022546601 -0.026057767 0.01871304
-0.020646915 -0.026110947 0.019321408
-0.019512167 -0.026533959 0.019676169
-0.0094772307 -0.026872152 0.019458732
-0.0079677142 -0.026683347 0.019099688
-0.006356054 -0.026482077 0.018769894
-0.0045692418 -0.025778174 0.018849855
-0.0028367999 -0.025416277 0.018409323
-0.040271997 -0.023688778 0.018036557
-0.0391584 -0.023538999 0.018046601
-0.025587553 -0.023933746 0.0181503
-0.02423268 -0.024258116 0.018542873
-0.022549605 -0.024374928 0.019166062
-0.02091413 -0.024477579 0.019599795
-0.0038100001 -0.025114197 0.019567002
-0.0025194911 -0.024845758 0.019161355
-0.00092325575 -0.024296224 0.019099088
0.0007864075 -0.023780163 0.019007111
0.0021496364 -0.023520362 0.018457547
-0.040009003 -0.02303409 0.018056093
-0.039024659 -0.022858791 0.01808561
-0.03550322 -0.021731222 0.018020334
-0.034023248 -0.0216875 0.0180135
-0.031049907 -0.021889545 0.01807709
-0.029601753 -0.02210859 0.018119834
-0.027944561 -0.022140173 0.018091423
-0.026122414 -0.022539539 0.018279208
-0.024336528 -0.022439107 0.018748233
-0.022449935 -0.022467362 0.019291067
-0.021401333 -0.022687336 0.019707536
0.0013033847 -0.023271538 0.019567464
0.0027476065 -0.022967855 0.019059636
0.0044455673 -0.022323139 0.018851746
0.0059201433 -0.021849284 0.018555216
-0.036210198 -0.020327402 0.018029099
-0.035082009 -0.020568723 0.018096456
-0.033168502 -0.020353418 0.018124044
-0.031543069 -0.020563582 0.018349975
-0.029672284 -0.02073488 0.018457644
-0.028060786 -0.02080529 0.018317312
-0.026136439 -0.020690275 0.018599847
-0.024251774 -0.020621669 0.018791623
-0.022477269 -0.020735966 0.019179396
-0.021158077 -0.020370519 0.019601855
0.0065120556 -0.02137325 0.01925189
0.0081224348 -0.020937154 0.018867306
0.0098582963 -0.020340478 0.018895546
0.011360555 -0.01999172 0.018424554
-0.036094334 -0.019643668 0.018021667
-0.03482122 -0.019278614 0.018109871
-0.033388879 -0.018888451 0.018242393
-0.031563021 -0.018920397 0.018600775
-0.029600194 -0.018834382 0.018451309
-0.028026942 -0.018922966 0.01858245
-0.026127456 -0.018846758 0.018861542
-0.024394639 -0.018958477 0.018803352
-0.022363825 -0.018879019 0.019123036
-0.020800306 -0.018845337 0.019564549
0.01066 -0.019789999 0.019757001
0.011960152 -0.019545598 0.019096149
0.013393462 -0.019087896 0.018825665
0.015239526 -0.018495735 0.018931659
0.016761947 -0.018183842 0.018490789
-0.033236001 -0.017229633 0.018350285
-0.031557914 -0.017050756 0.018602476
-0.029806729 -0.017176956 0.018639611
-0.027815003 -0.017175468 0.019091533
-0.026136197 -0.017106252 0.019070346
-0.024534786 -0.016950287 0.018895056
-0.022377489 -0.016963892 0.019268187
-0.020551927 -0.017082702 0.019582666
-0.019702001 -0.017039001 0.019746998
0.015934 -0.017967001 0.019766999
0.017263001 -0.017783551 0.019147849
0.018926246 -0.017348191 0.018868079
0.020684455 -0.016726369 0.018902887
0.022046078 -0.016314 0.018566769
-0.032732431 -0.015576272 0.018206159
-0.031559218 -0.015423306 0.018350614
-0.029788367 -0.015262827 0.018821187
-0.027881239 -0.01526162 0.019141292
-0.026112843 -0.015343145 0.019123755
-0.024295531 -0.015296326 0.019113718
-0.022581581 -0.015241831 0.019430682
-0.021113476 -0.015690781 0.019640611
-0.019172402 -0.014552 0.0197882
0.022745851 -0.015987145 0.018932616
0.024317279 -0.015470889 0.018880751
0.026187284 -0.014851498 0.018732404
0.027390875 -0.014539376 0.018435499
-0.031228827 -0.013611463 0.018248944
-0.02961418 -0.013558239 0.018712986
-0.027932089 -0.013540732 0.018772911
-0.026176251 -0.013567902 0.018887136
-0.024291368 -0.013489588 0.01934474
-0.022815123 -0.013630898 0.019654017
-0.0203785 -0.012761572 0.019766575
0.026797 -0.0143515 0.019629501
0.028112294 -0.014100184 0.019143375
0.029662 -0.013720511 0.018864827
0.031617023 -0.013038251 0.018859752
0.032683115 -0.012716112 0.018379556
-0.031012252 -0.012395168 0.018110251
-0.029717429 -0.011754727 0.018420599
-0.027952636 -0.011826093 0.018696912
-0.026056409 -0.011606611 0.019120637
-0.024311248 -0.011745404 0.019520272
-0.022565061 -0.011645972 0.019548116
-0.021049011 -0.011728224 0.019655876
0.032344002 -0.012528 0.019782001
0.033477489 -0.012258877 0.018945212
0.03512289 -0.011587941 0.019080803
0.036779765 -0.011005446 0.018664237
-0.030675752 -0.010602999 0.01804975
-0.029702945 -0.0099734226 0.018344151
-0.02806231 -0.0098111043 0.018835554
-0.026012894 -0.0098522836 0.019108631
-0.024304694 -0.009931297 0.019168412
-0.022552019 -0.0098967291 0.018967923
-0.020639829 -0.0098940702 0.019199932
-0.019317558 -0.0095448894 0.019673223
-0.0177065 -0.010279556 0.019782612
-0.0075682099 -0.0094304066 0.019426826
-0.0071826251 -0.0096575003 0.019716
0.037343718 -0.010517419 0.018994931
0.038583424 -0.0095227603 0.018903809
-0.030717859 -0.0084155714 0.018023714
-0.029833334 -0.0084824385 0.018146161
-0.027945204 -0.0080194036 0.018544808
-0.026139878 -0.0080948016 0.018778505
-0.024275338 -0.0080938293 0.018733015
-0.022479393 -0.008198088 0.018479809
-0.020513885 -0.0080542658 0.018512674
-0.019389441 -0.0079083759 0.019499162
-0.016550958 -0.0077680429 0.01969987
-0.015328381 -0.0078894468 0.0195278
-0.01358636 -0.0079426654 0.019488376
-0.011887396 -0.0076323124 0.019521542
-0.0094157476 -0.0079950672 0.019348208
-0.0077219354 -0.0081163393 0.018891782
0.039330415 -0.0084289787 0.019392412
0.04036044 -0.0079539446 0.018763939
0.04189983 -0.0074493336 0.018230751
-0.028997641 -0.0057657864 0.018034786
-0.027868813 -0.0063335248 0.018189106
-0.026087357 -0.006436646 0.018442111
-0.024295073 -0.0063355844 0.018486625
-0.022593735 -0.0062629767 0.018195987
-0.020411093 -0.0063343649 0.01816364
-0.019093936 -0.0062562865 0.019202976
-0.017090494 -0.0062398096 0.019647341
-0.015319354 -0.0063390895 0.019411758
-0.013461022 -0.0063448353 0.019140461
-0.011580085 -0.0062761414 0.01930611
-0.00980803 -0.0062517989 0.019030754
-0.0076411166 -0.0063429843 0.019020488
0.0395585 -0.0067199999 0.019744001
0.040522762 -0.0063048014 0.019346775
0.042253673 -0.006301465 0.018517522
0.043327779 -0.0057541113 0.018111335
-0.030877 -0.003951 0.0180065
-0.029496364 -0.0044256034 0.018116288
-0.027788851 -0.0045676101 0.0184916
-0.0261398 -0.0044344799 0.018793492
-0.024314653 -0.0044818753 0.018886965
-0.022551656 -0.0044435649 0.018476766
-0.020577615 -0.0045067943 0.018176623
-0.018885406 -0.0045696762 0.018864281
-0.017041389 -0.0043850876 0.019006429
-0.01535837 -0.0045722858 0.018975856
-0.013420834 -0.0045382055 0.018846603
-0.011547462 -0.0043806257 0.018859223
-0.010072212 -0.0045977999 0.018409353
-0.0080710594 -0.0046321088 0.018779837
-0.0022884286 -0.0037917146 0.019788142
-0.0017349999 -0.0036589997 0.019797001
0.0029512004 -0.003747867 0.019725768
0.0037223333 -0.0036843333 0.019781668
0.040633272 -0.0044720536 0.01949445
0.042342409 -0.0044113253 0.018725784
0.04365113 -0.0043779835 0.018217251
-0.031004757 -0.0026633104 0.01806231
-0.029640608 -0.0026412499 0.018243592
-0.027847311 -0.0026252391 0.018617002
-0.026073681 -0.0025720231 0.018977277
-0.024291132 -0.0025818294 0.019143149
-0.022513673 -0.0026806118 0.0188642
-0.020705953 -0.0025904723 0.018185223
-0.018976409 -0.0027032252 0.018543694
-0.01711441 -0.0029353038 0.018532073
-0.015386137 -0.0028935764 0.018309643
-0.013512582 -0.0029289827 0.018273534
-0.011623185 -0.0031026176 0.018266184
-0.0099721877 -0.0027327333 0.018379802
-0.0084380666 -0.0027073408 0.019103795
-0.0062655797 -0.0023175261 0.019764867
-0.0053114998 -0.0030584997 0.019784499
-0.0024021298 -0.0027867225 0.019731704
-0.0011126559 -0.0024677888 0.019660611
0.00018380005 -0.0029364 0.019792
0.0029365418 -0.002887174 0.019664407
0.0044915583 -0.0025068989 0.019516183
0.0061567854 -0.0022123635 0.019565135
0.0074287006 -0.0019937002 0.019656802
0.040734038 -0.0027402469 0.019523079
0.042336516 -0.0027014774 0.018676812
0.044189651 -0.0025784252 0.01825868
0.045811787 -0.0023004485 0.018162809
0.047379471 -0.0023245099 0.018142214
-0.029359305 -0.0016710002 0.018199667
-0.027964963 -0.0015800002 0.018380238
-0.026086904 -0.0015212075 0.01862249
-0.024184354 -0.0010322665 0.018621767
-0.022526957 -0.0008978445 0.018753244
-0.020584842 -0.0010071519 0.018373728
-0.019029859 -0.00089317886 0.018348157
-0.017071003 -0.0011835002 0.018161694
-0.016127666 -0.0015986668 0.018029001
-0.0098170778 -0.00080152543 0.018930027
-0.0080619883 -0.0007096334 0.019589448
-0.0066356901 -0.0011532666 0.019744359
-0.0021904444 -0.00051077775 0.019764388
-0.0010691851 -0.0010561427 0.019669723
9.0666581e-05 -0.00052950007 0.019778168
0.0031651671 -0.00089259265 0.019726072
0.0045397286 -0.0011361472 0.019608153
0.0064733182 -0.00098067452 0.01930335
0.0080602635 -0.00081519573 0.019327857
0.0098946821 -0.00057542318 0.019651877
0.011582856 -0.00030481635 0.019692281
0.012613 -4.300008e-05 0.019789001
0.019400056 -0.00033978265 0.019645317
0.020264197 -0.00031968413 0.019711053
0.040833257 -0.00097730639 0.019550482
0.042227253 -0.00088564196 0.018835196
0.044043571 -0.0010771063 0.018341962
0.045715649 -0.00099674985 0.018143868
0.047516238 -0.0010859856 0.018142391
-0.022435376 0.00050560827 0.018243944
-0.020779306 0.00085074367 0.01821113
-0.019156182 0.00040866656 0.018153245
-0.012617 0.0017742859 0.019098572
-0.0118946 0.0011195886 0.018932942
-0.0098511064 0.00078687951 0.01950564
-0.0080105346 0.00090248714 0.019290134
-0.0068757539 0.00082270976 0.019344095
-0.0022489 0.00039150007 0.0197517
-0.00087501516 0.00082351518 0.019715665
0.00044108334 0.0011267085 0.019762211
0.0028268616 0.0010210155 0.019704059
0.0044616633 0.0010661163 0.019673422
0.0064565991 0.00092100992 0.019498058
0.0080635156 0.0008460597 0.019462168
0.0098415744 0.00031470842 0.019626245
0.011853183 0.00073144533 0.019606082
0.012846196 0.0012187454 0.019623825
0.019578412 0.00037665913 0.019685455
0.020722635 0.00060078641 0.019675331
0.021942614 0.00088060956 0.01974573
0.041110259 0.00075774075 0.019595075
0.042170394 0.00084606948 0.019089432
0.044217236 0.0009979842 0.018545557
0.045471188 0.0010201113 0.018163066
-0.021037001 0.00194425 0.018009249
-0.013397318 0.0027241074 0.018903293
-0.011893439 0.0025155416 0.019340701
-0.0096067265 0.002492913 0.019681409
-0.0082853986 0.0024018749 0.019525718
-0.0065713837 0.00275595 0.019663766
-0.00078233331 0.0019406667 0.019789001
0.0012222729 0.0026803336 0.01975012
0.0026774167 0.0024926672 0.019696254
0.004378695 0.0024018644 0.019684967
0.0062996955 0.002657536 0.019658644
0.007999314 0.0023476074 0.019693749
0.012431868 0.0024538427 0.019636424
0.013183986 0.0028016954 0.019534318
0.039361604 0.003564067 0.018932734
0.04061842 0.0032218415 0.01935729
0.042319123 0.0029117356 0.019080812
0.044134568 0.0028349992 0.018402312
0.045498829 0.0024220387 0.018152179
-0.014820129 0.004474292 0.01891638
-0.013915632 0.0041238116 0.019232718
-0.011922218 0.0040367814 0.019731594
-0.0106 0.0036250008 0.019799
-0.00583725 0.0042795525 0.019677695
-0.0053461003 0.0051098 0.019771202
0.0046466193 0.0042872382 0.019773429
0.0062563079 0.0039990004 0.019747194
0.012427363 0.0046023182 0.019694909
0.013270662 0.0044016284 0.019420439
0.014506668 0.0048473333 0.019768333
0.0215532 0.0050706002 0.019765601
0.022491826 0.0050250753 0.019654058
0.023831831 0.0050458894 0.019676778
0.029523332 0.0047827773 0.019372834
0.037474368 0.0049654362 0.019100295
0.038652614 0.0041628135 0.018747274
0.040471934 0.0042172205 0.018245779
0.042126477 0.0041964995 0.018230263
0.043595221 0.0037601669 0.018190779
-0.01675421 0.006764791 0.01880803
-0.015486346 0.0061307312 0.019321442
-0.014010691 0.005978616 0.019733462
0.0015088 0.0069478001 0.0197668
0.0028833502 0.0067180009 0.019719277
0.0036616668 0.0068684998 0.019740168
0.012187128 0.0064017503 0.019579887
0.013388 0.0061913789 0.019551201
0.019497 0.0071459999 0.019793
0.020883178 0.0065533947 0.019514406
0.022426844 0.0063056326 0.019284779
0.024205117 0.0063735927 0.019344138
0.02597316 0.0068182633 0.019663002
0.028168591 0.0069354987 0.019730968
0.029864157 0.0062982151 0.019004228
0.031284045 0.0067201783 0.019079998
0.033023413 0.0070257662 0.019547766
0.0355657 0.0070350999 0.019680399
0.036969293 0.006255887 0.018742103
0.038804378 0.006523354 0.01802402
0.040213518 0.0059953025 0.018053152
0.041941103 0.0055688997 0.018025901
-0.01680615 0.007787934 0.018587308
-0.015533094 0.0083001405 0.019211359
-0.014169499 0.0078835003 0.019749999
-0.0057079098 0.0082518188 0.019748546
-0.0044332324 0.008433505 0.019726014
-0.0032124815 0.0084067229 0.019595701
-0.00052745448 0.0089006368 0.019741001
0.0010560788 0.0080158943 0.019743867
0.0026503771 0.0081054345 0.019601433
0.0044137286 0.0082708513 0.01958612
0.0055113337 0.0088689998 0.019726999
0.0088810008 0.0088364994 0.019786
0.0096130604 0.0087351752 0.019756529
0.019334948 0.0081837596 0.019535538
0.020544451 0.0082221245 0.019059094
0.02263735 0.0080079371 0.018789202
0.024289716 0.008138244 0.018819684
0.026091354 0.0079934699 0.019230995
0.028020354 0.0079998383 0.019509081
0.029596156 0.0080914265 0.019318799
0.031527925 0.0080391634 0.018507214
0.033260807 0.0081198206 0.018456561
0.035071924 0.0081074862 0.018794302
0.036524281 0.0080344724 0.018508481
0.037921004 0.0072334995 0.0180075
-0.018017 0.010791999 0.018011
-0.016670484 0.010204208 0.018122654
-0.015163389 0.0097271409 0.018822454
-0.01404872 0.010346824 0.019418336
-0.0057982863 0.010488643 0.019747075
-0.0044423812 0.0097949104 0.019457234
-0.0026164255 0.010019802 0.019049009
-0.00087531481 0.0097875483 0.019019019
0.0009129867 0.009961783 0.019155765
0.0025068631 0.010141023 0.019417895
0.0046098055 0.0098882914 0.019363945
0.0062996382 0.0098958965 0.019386079
0.0082377018 0.01024356 0.0192369
0.0098890504 0.010103675 0.019138094
0.011560561 0.010125194 0.019151486
0.013426803 0.010031396 0.018929776
0.015390744 0.010096929 0.018975016
0.016951187 0.010110311 0.019190261
0.018926524 0.010141688 0.019384434
0.020710144 0.0098501658 0.019234801
0.022494381 0.010040875 0.018850539
0.024222236 0.0098507125 0.018553963
0.026098218 0.010000085 0.018960029
0.027873764 0.0099596595 0.0192833
0.029730638 0.0099609448 0.019436441
0.031424232 0.0097303931 0.01899715
0.033216313 0.0098154685 0.01862794
0.035121586 0.0098487372 0.018219924
0.036277309 0.0093685389 0.018122153
-0.021619251 0.012251001 0.01803725
-0.020765573 0.012197974 0.018127229
-0.018883063 0.011946765 0.018257292
-0.017044079 0.011712627 0.018539391
-0.015276363 0.011664436 0.01895342
-0.013619546 0.011508486 0.019470731
-0.0073810001 0.012516 0.019685
-0.0062470445 0.011563102 0.019536609
-0.0045312434 0.011506122 0.018969014
-0.0026507638 0.011416847 0.01837779
-0.0014936061 0.010978758 0.018231727
0.0028809707 0.011148226 0.018696563
0.004427541 0.011348978 0.018820753
0.0063031525 0.011258753 0.018679366
0.007960964 0.010921252 0.018425394
0.017711001 0.010833 0.018073
0.019186981 0.011032265 0.018548075
0.020805668 0.011443269 0.018609995
0.022628635 0.01165309 0.018483026
0.024158306 0.011801267 0.018504813
0.026189335 0.011861601 0.018919528
0.02793899 0.011693127 0.019094249
0.02959265 0.011753554 0.019087154
0.031487513 0.011828583 0.018778427
0.033290487 0.011418425 0.018567771
0.034806248 0.011271358 0.018266303
-0.021901468 0.01377943 0.018076394
-0.020764213 0.013548021 0.018351316
-0.019089781 0.013323361 0.018631706
-0.017057903 0.013518775 0.019197738
-0.015298058 0.013196138 0.019571943
-0.014031352 0.012922413 0.019686766
-0.0093459999 0.014357 0.019727001
-0.0078944638 0.013534893 0.019520499
-0.0063277953 0.01359207 0.018986976
-0.0044628181 0.013516436 0.018447196
-0.0031243635 0.013101955 0.018152047
0.024397569 0.012851726 0.018317746
0.02614625 0.013041221 0.018415764
0.027812095 0.013129052 0.01848151
0.029595761 0.012910841 0.018250842
0.031059714 0.01273657 0.018203
-0.022200946 0.015299737 0.018323023
-0.020909877 0.015150124 0.018612748
-0.018892532 0.015290935 0.019240383
-0.017381063 0.014898376 0.019617811
-0.010927 0.015993001 0.019782001
-0.009632499 0.015387501 0.019473456
-0.0081178742 0.015367227 0.018984605
-0.0062656528 0.015344797 0.018456083
-0.0048273848 0.014947465 0.018149115
-0.02207659 0.016790306 0.018310001
-0.020752085 0.017224416 0.018982854
-0.019275617 0.01710254 0.019622918
-0.011421868 0.017243935 0.019599669
-0.0098131187 0.017001001 0.01900579
-0.0080379788 0.017035348 0.018391533
-0.0066283341 0.016646458 0.018148499
-0.020457914 0.018573882 0.01862829
-0.019200452 0.019089991 0.019213667
-0.017798668 0.019667666 0.019689335
-0.013148342 0.01947397 0.01968972
-0.011747296 0.018950999 0.019259024
-0.009975967 0.018892903 0.018433161
-0.0086462498 0.018386502 0.01811175
-0.018651027 0.020259604 0.018513829
-0.017080773 0.020699106 0.019105639
-0.015393434 0.021061048 0.019383047
-0.013431166 0.020733986 0.019456197
-0.011748983 0.020779602 0.01871834
-0.010500199 0.020450601 0.018166302
-0.016481377 0.021855438 0.018277502
-0.015210074 0.022089146 0.018523201
-0.013554414 0.022474151 0.018674918
-0.011802084 0.022427076 0.018263422
-0.013181999 0.023550101 0.018094901
-0.012068124 0.023527751 0.018083625
-0.018268818 -0.02716127 0.019927546
-0.01702157 -0.02749452 0.020042265
-0.015480674 -0.027733922 0.020009045
-0.013415044 -0.027505934 0.019910138
-0.011727236 -0.027421448 0.019980961
-0.010660167 -0.027232667 0.019909669
-0.018774234 -0.026075939 0.019987311
-0.017158214 -0.026153218 0.020448789
-0.015301563 -0.026098549 0.020382235
-0.01348142 -0.026122484 0.020331528
-0.011614542 -0.026039863 0.020575633
-0.0098139448 -0.026004659 0.020774323
-0.0083790803 -0.025911149 0.020918952
-0.0063506821 -0.025627434 0.020479273
-0.0050059999 -0.025328999 0.0201053
-0.020166036 -0.024177309 0.020017928
-0.019051194 -0.0244186 0.020443056
-0.017074147 -0.024285508 0.020898867
-0.015267427 -0.024282334 0.020872852
-0.013387076 -0.024119947 0.020962758
-0.01195481 -0.024289723 0.021038322
-0.0099986242 -0.0251255 0.021557877
-0.0058050002 -0.025121335 0.021335833
-0.0043538394 -0.024768014 0.020969138
-0.0028012816 -0.024183065 0.020910565
-0.0010596002 -0.023646003 0.020594733
0.00025500008 -0.023432 0.019935001
-0.020638647 -0.02248271 0.020059727
-0.018878613 -0.022440305 0.020576304
-0.017085304 -0.022473309 0.020917363
-0.015251678 -0.022445558 0.021076588
-0.013322102 -0.022605482 0.021307385
-0.012307158 -0.02279398 0.021368423
-0.00056889479 -0.02324079 0.021344261
0.00086586678 -0.022930486 0.020796802
0.0026328731 -0.022337861 0.02067183
0.004237771 -0.021841198 0.02047137
-0.020349184 -0.020726532 0.019991634
-0.018900027 -0.020616442 0.020491129
-0.017226975 -0.020593703 0.021040212
-0.015220695 -0.020631488 0.020901415
-0.013629615 -0.020814469 0.021122739
0.0048969002 -0.021381699 0.021076933
0.0063058874 -0.020800775 0.020997088
0.0080418894 -0.020285113 0.020828003
0.009445738 -0.020011263 0.02032337
-0.020104654 -0.019358957 0.019967608
-0.018976748 -0.018982263 0.020379433
-0.017291145 -0.018970616 0.021084256
-0.015090073 -0.018936668 0.021031613
-0.013981776 -0.019071793 0.021257175
0.0087050004 -0.019757001 0.021503601
0.0098797502 -0.019530406 0.021147624
0.011649299 -0.018978473 0.020764451
0.013470112 -0.018402971 0.020606944
0.014908222 -0.018171666 0.02007411
-0.018868923 -0.017095253 0.020172117
-0.016955344 -0.017079733 0.020854605
-0.015449239 -0.017149424 0.020909255
-0.014285286 -0.017662715 0.02148
0.01403425 -0.017910749 0.0213555
0.015500565 -0.017614324 0.020918055
0.016983792 -0.017234668 0.020680334
0.018970324 -0.016656643 0.020719536
0.020298 -0.01641093 0.020279072
-0.020288361 -0.015211697 0.019921839
-0.018915614 -0.015241409 0.020008596
-0.017088106 -0.015374037 0.020474838
-0.015594505 -0.015364177 0.021071287
0.020846652 -0.015990652 0.020998783
0.022425625 -0.015554219 0.020738656
0.024332762 -0.014915159 0.020636527
0.025803624 -0.0145295 0.020165376
-0.022063039 -0.013154812 0.019921541
-0.02078747 -0.013525344 0.019916058
-0.018996676 -0.01361846 0.019985616
-0.017131561 -0.013469378 0.02056169
-0.015468034 -0.013465209 0.021164322
-0.013049874 -0.01290246 0.0213838
-0.01217057 -0.013080501 0.021374518
0.025091 -0.014345501 0.021474501
0.026379777 -0.014052278 0.02092289
0.028029757 -0.013491 0.020910734
0.029565159 -0.013016447 0.020751666
0.031019136 -0.012787268 0.020275535
-0.022148559 -0.012491445 0.019850999
-0.020257369 -0.011498535 0.019858832
-0.018859789 -0.0116696 0.01997127
-0.017034024 -0.011649551 0.020304324
-0.015262924 -0.011692451 0.020687398
-0.01353287 -0.011822785 0.020622572
-0.011797908 -0.011641454 0.020903278
-0.0099790934 -0.011118 0.021444941
-0.0077992533 -0.01134308 0.021197826
0.030145165 -0.01244175 0.021345332
0.031669706 -0.012222835 0.021051403
0.0333317 -0.0117605 0.020794999
0.034959488 -0.011194361 0.020550763
-0.019956585 -0.010463918 0.0198525
-0.01895185 -0.009936532 0.019935431
-0.017070996 -0.0098397117 0.019972121
-0.015263221 -0.0099937022 0.020231314
-0.01359527 -0.0098691368 0.020319987
-0.011681658 -0.0099372873 0.020627955
-0.0099699264 -0.0099103134 0.020809377
-0.007450501 -0.0098605184 0.020961042
-0.0071487469 -0.0099296859 0.020472266
0.01603825 -0.0091424994 0.02153375
0.016296498 -0.0090494994 0.0215335
0.035581697 -0.010449 0.021101192
0.036874097 -0.0098554259 0.02064294
0.038182676 -0.0093320366 0.020109395
-0.018672962 -0.0081609823 0.019880436
-0.017237397 -0.0082141748 0.019919625
-0.0154255 -0.0088588744 0.019841123
-0.013165 -0.0087624723 0.019894894
-0.011526708 -0.008550805 0.020268161
-0.010261542 -0.0081836358 0.020133397
-0.0073702694 -0.0082427217 0.020802192
-0.0071125552 -0.0075759995 0.021538556
-0.0040770001 -0.0072210003 0.0215795
-0.0023940767 -0.007401885 0.02146654
-0.00094903418 -0.0075390786 0.021289399
0.00055165723 -0.0073992289 0.021267401
0.015889786 -0.0084803216 0.021415213
0.016721781 -0.008145215 0.02135296
0.037234955 -0.0082081761 0.021141727
0.038380861 -0.0081389677 0.020300815
-0.01841275 -0.0070133335 0.019844253
-0.017570499 -0.0069784997 0.019809
-0.010269874 -0.0069893748 0.01985825
-0.0074821319 -0.0065614739 0.020318408
-0.0063165398 -0.0062901359 0.021066388
-0.0045192624 -0.0062191314 0.021025373
-0.0026585271 -0.0064350134 0.02116036
-0.00095385336 -0.006298699 0.020719508
0.00091253885 -0.0063637104 0.020686558
0.0025310991 -0.0060040653 0.021104624
0.0039870674 -0.0057458007 0.021478936
0.01216537 -0.0057496843 0.021501528
0.013361121 -0.0056727068 0.021447536
0.037389614 -0.0061926381 0.021273971
0.038640618 -0.0061941217 0.020401923
-0.0075035165 -0.0045595355 0.020024452
-0.0063816411 -0.0046414831 0.020185988
-0.0045255711 -0.0045889909 0.020180985
-0.0028016148 -0.0044739936 0.020065589
-0.0009551504 -0.0046885894 0.020079302
0.0009347435 -0.0046224389 0.019994138
0.002703601 -0.0046501285 0.020260587
0.0045933346 -0.0043729492 0.020933488
0.0062378086 -0.0043420317 0.021096837
0.0078812186 -0.0041310652 0.021343924
0.0097577665 -0.0038784335 0.021383867
0.011846018 -0.0043820506 0.021355338
0.013685403 -0.0044996748 0.021111034
0.014572202 -0.0040306002 0.021270102
0.037580859 -0.0047547622 0.021356385
0.038772922 -0.0045681265 0.020485884
0.03978331 -0.0042314213 0.019859318
-0.0075178244 -0.0032807058 0.019871647
-0.0060856566 -0.0030871562 0.019844498
-0.0043761358 -0.0026341693 0.019942103
-0.0032256925 -0.0025142815 0.019906409
-0.00022583331 -0.0025325003 0.019824835
0.0010593067 -0.0028059476 0.019885359
0.0026192421 -0.002281355 0.019857626
0.0047821794 -0.0032998205 0.020103464
0.0063336715 -0.0029998838 0.020401139
0.0080438219 -0.0026736527 0.020709386
0.0097256312 -0.0026213797 0.020713117
0.011711922 -0.0026299132 0.021064829
0.013512811 -0.0027469634 0.02088308
0.014960769 -0.0027303204 0.021097505
0.01909777 -0.0020591158 0.021049567
0.020032573 -0.001952143 0.021524286
0.038782347 -0.0026887262 0.020865887
0.039858893 -0.0027344448 0.019970849
-0.006092255 -0.00071823853 0.019947166
-0.0044529312 -0.00099665101 0.020035254
-0.0029582328 -0.00095960742 0.019940538
-0.00029831255 -0.001379375 0.019877626
0.00091208052 -0.00090973539 0.019928806
0.0025181007 -0.0011785832 0.019880669
0.0041436665 -0.00014033323 0.019805335
0.008653 -0.0015775624 0.019980034
0.0099845091 -0.0014695569 0.01999595
0.01182038 -0.0011048509 0.020358782
0.013473076 -0.00096186606 0.020678079
0.015291387 -0.00090063841 0.020996856
0.017224455 -0.00074247591 0.021036681
0.018891754 -0.00104285 0.020153852
0.020666499 -0.00069765205 0.020681253
0.022233624 -0.0006128556 0.021370722
0.023861669 -9.7444485e-05 0.021564554
0.029947398 -0.00011109997 0.0215424
0.038953293 -0.00093411421 0.020906817
0.039995536 -0.00081922527 0.020045172
-0.0061956355 0.00084149506 0.020090101
-0.0045570941 0.00086594361 0.020286981
-0.0028364814 0.0010666923 0.020023115
-0.0016475001 0.0016685002 0.0198185
0.0011873018 0.00085303182 0.019876847
0.0022044585 0.00051145849 0.019862628
0.0044032503 0.00035412493 0.01981725
0.008818889 0.0013716666 0.019849114
0.0099957185 0.001024252 0.019913785
0.011433852 0.0013842622 0.020006046
0.013615087 0.00078816817 0.020170972
0.015292656 0.0007396345 0.020581227
0.017107906 0.00077320746 0.020663712
0.018825848 0.00084206957 0.020058975
0.020905845 0.00086992013 0.020089895
0.022448257 0.0007610239 0.020448634
0.024004204 0.00093745731 0.021278363
0.026157079 0.0011822974 0.02142673
0.027894182 0.0012242085 0.021345191
0.029852413 0.00086678826 0.021285992
0.031357117 0.00099642854 0.021399459
0.038900044 0.00076285499 0.021144792
0.040235493 0.00092203903 0.020187
-0.0096892817 0.0032636309 0.019891784
-0.0078853127 0.0033179997 0.019908376
-0.0059611676 0.0027195476 0.020120157
-0.0046752985 0.0028291841 0.020437103
-0.0026730879 0.0026229648 0.020276632
-0.00098283705 0.0028623722 0.019951513
0.00075332558 0.0028482089 0.019864768
0.0027347778 0.0034929998 0.019832777
0.0043932004 0.0031530503 0.0198441
0.0085564358 0.0027490242 0.019887755
0.0098985294 0.0026652135 0.020118739
0.011547916 0.0026432241 0.020125704
0.013993627 0.0023541499 0.020038577
0.015192817 0.0027615055 0.020364622
0.017133439 0.0027186857 0.020640159
0.018938832 0.0025414089 0.020224126
0.020717179 0.0026223664 0.020036649
0.022557927 0.0025406971 0.020399462
0.024251599 0.0027733925 0.020593219
0.026096819 0.0027558336 0.021001991
0.028117204 0.0027805935 0.020930456
0.029621404 0.0028785889 0.02081044
0.031588756 0.0027699801 0.021233713
0.033031825 0.0032956544 0.021105817
0.03421 0.0034610005 0.021597
0.038977832 0.0030759212 0.021268038
0.04037419 0.0027591686 0.02029301
-0.012929285 0.0052402862 0.019838572
-0.011746565 0.0048856335 0.019849535
-0.0097559858 0.004374282 0.02009291
-0.0082594175 0.0043624402 0.020090248
-0.0063627274 0.0045603411 0.019943774
-0.004759992 0.0045453864 0.020362476
-0.0025387197 0.00453194 0.020459261
-0.00080377224 0.0045664939 0.02011852
0.00089620694 0.0046419487 0.020013109
0.0028439311 0.0046850606 0.019979987
0.0042842207 0.0046015698 0.019885136
0.0064094919 0.004811204 0.019940084
0.0082179233 0.0046998612 0.020053273
0.0098617272 0.0044663465 0.020186316
0.011542548 0.0044562826 0.020102844
0.0141635 0.0037705004 0.019810501
0.015357895 0.004460264 0.020176128
0.01705578 0.0045016613 0.020691628
0.018800959 0.0046534352 0.020499675
0.020868553 0.0045929872 0.020032398
0.022462951 0.0042704032 0.019891141
0.024402382 0.0043122736 0.020027915
0.026193405 0.0043231258 0.020531289
0.028123235 0.0043815407 0.02053926
0.029889561 0.0043360093 0.020248668
0.031512275 0.0044635995 0.020873461
0.033340212 0.0044360403 0.020775668
0.035091195 0.0046228007 0.021173853
0.036952872 0.0046362113 0.020899
0.038607892 0.0039929678 0.020555042
0.039649602 0.0036442005 0.02018
-0.013090552 0.0062395865 0.019881036
-0.011768063 0.0063177664 0.020019889
-0.00990503 0.0065381667 0.020273104
-0.0080655012 0.0065334807 0.020440198
-0.0062255766 0.0064458596 0.020168457
-0.0046015847 0.0063127405 0.020142971
-0.0027436628 0.0063842945 0.020469001
-0.0010014432 0.006333692 0.020078396
0.00083628978 0.0061017107 0.019975668
0.0026940515 0.0058100512 0.019961666
0.004356218 0.0063398979 0.019974222
0.0062699071 0.0063414271 0.020066388
0.0081042256 0.0063150665 0.020185696
0.0097555909 0.0061840783 0.020139178
0.011435251 0.0062658181 0.020022701
0.013890572 0.0069752866 0.019861717
0.015422074 0.0063503697 0.020349508
0.017046871 0.0063801203 0.020671537
0.018914299 0.0063336245 0.020269983
0.020572962 0.0057787411 0.019996151
0.024949802 0.0056829001 0.019872401
0.026188148 0.0059991754 0.020070052
0.027871421 0.0061632046 0.020075867
0.029256461 0.0057637086 0.019974999
0.031684101 0.0059537701 0.020312849
0.033315741 0.0063404846 0.020472912
0.035095043 0.0062452671 0.020362394
0.036353253 0.0057798941 0.020159807
-0.013429887 0.0082877958 0.019974217
-0.011537179 0.0081558712 0.020171976
-0.0099196471 0.0079296203 0.020191584
-0.0081854379 0.0078190397 0.020157594
-0.0063292631 0.0077908272 0.020055329
-0.0047980133 0.007973697 0.019954255
-0.0025971907 0.008014244 0.020089289
-0.0009744516 0.0082006222 0.019928237
0.00023718746 0.0080787502 0.019820562
0.004768597 0.0077304454 0.019936247
0.0062364843 0.0080676274 0.019998301
0.0079693589 0.0081344144 0.020044612
0.010023435 0.0079067256 0.019920727
0.011685252 0.0079614902 0.019991208
0.013487536 0.0081059122 0.020188024
0.015262123 0.0080844853 0.02042049
0.017136903 0.0081219869 0.02045
0.018466976 0.0079276962 0.020126387
0.035149403 0.0072586001 0.019854
-0.014432998 0.0092350002 0.019836001
-0.013387834 0.0099385744 0.020001654
-0.011686912 0.0099341106 0.020273931
-0.0099000065 0.0098180491 0.020262185
-0.0081015555 0.0099712154 0.020250592
-0.0064044134 0.009862355 0.020004258
-0.0052983998 0.0094052004 0.0198204
-0.0022601821 0.0091369096 0.01985091
-0.00071757153 0.0090874303 0.019837571
0.0002958182 0.0092729097 0.019838819
0.0066028838 0.0092302309 0.019857464
0.0078083752 0.0092346873 0.019872062
0.010783 0.0090739997 0.019826001
0.01174921 0.0092622489 0.019867253
0.01351768 0.0092786793 0.019925144
0.015330364 0.0092355162 0.020010544
0.017135838 0.0093779657 0.019979898
0.018544644 0.0094045168 0.019944226
-0.012902911 0.011505958 0.019983955
-0.011791007 0.011629818 0.020239171
-0.0098301675 0.011717685 0.020113049
-0.0081813261 0.011636054 0.020118784
-0.0068875994 0.010960501 0.0198495
-0.014975999 0.013983312 0.020034932
-0.013416747 0.013726283 0.020136923
-0.011693211 0.013514699 0.020324256
-0.0099028219 0.013564443 0.019964756
-0.0087140864 0.013008133 0.019964047
-0.016816514 0.015632486 0.020127131
-0.015288447 0.015212565 0.020433789
-0.013460872 0.015267693 0.020563414
-0.011839391 0.015130393 0.020328484
-0.01045825 0.014794125 0.0199755
-0.01859344 0.017339071 0.019922579
-0.017268565 0.016973672 0.02031897
-0.015345032 0.017085327 0.020614972
-0.013575463 0.017141333 0.020484801
-0.012057637 0.016882183 0.019987317
-0.018487999 0.01846467 0.019934166
-0.017137274 0.018838357 0.020202981
-0.015177389 0.018963614 0.020297246
-0.013665909 0.018681619 0.020043042
-0.012498 0.0182015 0.019855499
-0.016542001 0.019950252 0.019866001
-0.015248998 0.020150669 0.019934794
-0.014130999 0.020015599 0.019903501
-0.0090739988 -0.025247 0.021786332
-0.0083077457 -0.025409998 0.021933923
-0.0069890004 -0.025286285 0.021829145
-0.011066791 -0.024041336 0.022066709
-0.010002767 -0.024497153 0.022425286
-0.0080300141 -0.024836617 0.022916632
-0.0063486234 -0.024647722 0.022569429
-0.0046599046 -0.024063323 0.02234545
-0.0028705499 -0.023670351 0.02182295
-0.0017510001 -0.023458999 0.021608001
-0.011505482 -0.022501798 0.022397473
-0.010594751 -0.02311275 0.023288749
-0.0040221526 -0.022890355 0.023210326
-0.0028282029 -0.022803515 0.02284335
-0.00088133948 -0.022554692 0.022520928
0.00091403461 -0.022102272 0.022360273
0.0024179164 -0.021841027 0.021930112
-0.012787734 -0.020331267 0.021786738
-0.011927263 -0.020787831 0.022631852
0.0014388183 -0.02146991 0.02318109
0.0027103333 -0.021322491 0.022759287
0.0045210007 -0.020814186 0.022454029
0.0061425008 -0.020278919 0.021999573
0.0073533333 -0.019950667 0.021803334
-0.012994437 -0.018662583 0.02223248
-0.012025367 -0.018796634 0.023052923
0.00673975 -0.019569416 0.022995502
0.0081764096 -0.019355882 0.022416633
0.0098203598 -0.018820496 0.022396354
0.011519999 -0.018287593 0.022374779
0.0128905 -0.0180695 0.021831499
-0.014504999 -0.0164882 0.021740401
-0.013516482 -0.017097568 0.022229375
-0.011617148 -0.017100269 0.022830652
-0.0098825535 -0.016995002 0.023139058
-0.0082963323 -0.016669206 0.023134286
-0.0063498458 -0.016489364 0.023170806
0.010770001 -0.017975999 0.023364
0.012023668 -0.017779578 0.023017999
0.013532288 -0.017324561 0.022838138
0.015276938 -0.016818522 0.022619834
0.016995912 -0.016475441 0.022211501
0.018655572 -0.016283428 0.021898288
-0.014618042 -0.015144168 0.021856543
-0.01353384 -0.015250035 0.022227714
-0.011736335 -0.0151804 0.022327295
-0.0099220099 -0.015384845 0.022582501
-0.00808175 -0.015271883 0.022681098
-0.0065024984 -0.015250149 0.022877926
-0.0053109997 -0.014563 0.023376999
0.015992401 -0.0161232 0.023275599
0.017098919 -0.016063083 0.023065455
0.018994622 -0.01582819 0.02276811
0.0207371 -0.015327715 0.022807511
0.022378314 -0.01482927 0.022699315
0.023914333 -0.014576 0.022016112
-0.014568857 -0.013516523 0.021715956
-0.013572688 -0.013573379 0.021831725
-0.011627658 -0.013799239 0.021910714
-0.010076412 -0.013517207 0.022186195
-0.0078369658 -0.013487524 0.022118701
-0.0064822664 -0.013553691 0.022880722
-0.0053553334 -0.013777333 0.023368334
0.014346001 -0.012821 0.023367001
0.015369916 -0.013131499 0.023197485
0.016689727 -0.01293309 0.023247497
0.0231825 -0.0143315 0.023178
0.024552394 -0.013992233 0.022718647
0.026134783 -0.013394168 0.022516545
0.027734112 -0.012909371 0.022110803
-0.011023714 -0.012326145 0.021668289
-0.0099863838 -0.012019433 0.021810481
-0.0077687064 -0.011869933 0.021897681
-0.0064711384 -0.011680851 0.022840081
-0.0052836668 -0.011056 0.023346668
0.013908622 -0.011531794 0.023178482
0.015496302 -0.011779648 0.022816012
0.016935639 -0.011530757 0.022839038
0.018579392 -0.011140783 0.023202874
0.02828428 -0.012190878 0.022683898
0.029595325 -0.011622235 0.022486823
0.031374365 -0.011309639 0.022190299
0.033151999 -0.010985846 0.02191277
-0.0073095588 -0.010065558 0.02181741
-0.00643986 -0.0098755592 0.022495624
-0.0047707665 -0.0097294552 0.022992691
-0.0027176668 -0.0092892386 0.023134712
-0.00083305419 -0.0094771096 0.023069743
0.00096101855 -0.0095356843 0.022996742
0.002475474 -0.009457686 0.023145789
0.0036909999 -0.0091484999 0.023348
0.010672666 -0.0090626664 0.023364
0.011972656 -0.0093983831 0.023298465
0.013577352 -0.0098762149 0.022811156
0.015425523 -0.0099493638 0.022027453
0.017156074 -0.0099881943 0.022387253
0.018868765 -0.0096957702 0.022900969
0.020276744 -0.0094026281 0.02311728
0.030065667 -0.010720666 0.023330001
0.031723578 -0.010372998 0.023065737
0.033328846 -0.0099936314 0.022755312
0.034971628 -0.0097547313 0.022203071
0.036084749 -0.0092737498 0.021744499
-0.0072070002 -0.0086026667 0.021655334
-0.0063886 -0.0081070336 0.021949075
-0.00443121 -0.0081327874 0.022089362
-0.0027750514 -0.0081404941 0.022049258
-0.0008763363 -0.0083007487 0.022119921
0.00093351165 -0.0081533222 0.022138163
0.0025882451 -0.0080425283 0.022397593
0.0044846884 -0.0081188511 0.023006266
0.0060909311 -0.0077382736 0.023060767
0.0082609365 -0.0077257184 0.023208978
0.0098558301 -0.008234648 0.023063062
0.011666953 -0.0082226461 0.022989295
0.013723804 -0.0080260141 0.02237978
0.015316277 -0.008038328 0.022556365
0.0170915 -0.0078121647 0.02208475
0.018962644 -0.0079655079 0.022666195
0.020542102 -0.0081913266 0.023127215
0.021812875 -0.0084659364 0.02334925
0.034058191 -0.0081355004 0.023300374
0.03506732 -0.0079682833 0.022787657
0.036328502 -0.0079534296 0.021922398
-0.0059935004 -0.0070858751 0.021644125
-0.0051879999 -0.0071950001 0.021669
0.0016317499 -0.0071014995 0.02166225
0.002806023 -0.0068735811 0.021762324
0.0046195979 -0.0063028778 0.02196129
0.0061959587 -0.006188401 0.022252586
0.0080141174 -0.0063128658 0.022613039
0.0098440154 -0.0064124116 0.022614587
0.011701815 -0.0064976313 0.022148566
0.013709409 -0.0064598075 0.021956809
0.015106671 -0.0062937848 0.022928603
0.017214345 -0.0065813181 0.023024185
0.018839028 -0.0068476223 0.023104275
0.020619975 -0.0070040487 0.023187025
0.031791229 -0.0056676767 0.023293193
0.033213578 -0.0060748775 0.023326516
0.035016071 -0.0063205985 0.022983804
0.036427204 -0.0061241142 0.022073116
0.0051752864 -0.0052178572 0.021676289
0.0061625005 -0.005274375 0.021653
0.0082914522 -0.0049161306 0.021812581
0.009912244 -0.0047293613 0.021890135
0.011002272 -0.005018455 0.021673458
0.014371 -0.0052089998 0.021695999
0.015356054 -0.0046530929 0.022439923
0.017129084 -0.004497285 0.02298706
0.018445125 -0.0042741331 0.023115072
0.026930999 -0.0036779996 0.023397001
0.028133519 -0.0039025999 0.023283798
0.029913476 -0.0041903299 0.02298687
0.03142998 -0.0044167018 0.022951048
0.032892395 -0.0044314093 0.023290247
0.035436865 -0.0045476574 0.023124045
0.036697604 -0.0044329688 0.022237813
0.015732137 -0.0030196393 0.021897558
0.017106913 -0.0026872389 0.022258433
0.018872082 -0.002763571 0.022412032
0.020724379 -0.0024501805 0.022414995
0.022357631 -0.0023184998 0.022813756
0.024325758 -0.0022898975 0.023163244
0.026127385 -0.0026685458 0.023055336
0.027954858 -0.0027866617 0.022801934
0.029724915 -0.0027513083 0.022488099
0.031473957 -0.0027519886 0.022598457
0.033162169 -0.0027407205 0.023075983
0.035268158 -0.0026112641 0.023327472
0.036868453 -0.0026638967 0.022501159
0.037871145 -0.002341286 0.021700429
0.016121333 -0.0017460001 0.021646334
0.017090853 -0.0015899412 0.021761881
0.018067 -0.0017619999 0.021651
0.021303833 -0.0017383335 0.021702334
0.02266429 -0.0011924877 0.022023367
0.024237745 -0.00085754745 0.022264563
0.02610378 -0.000908588 0.022223016
0.02779006 -0.00080374698 0.022175889
0.029682567 -0.0010198163 0.021936908
0.031548444 -0.00086471724 0.022106554
0.033297859 -0.00097005296 0.022541523
0.035021245 -0.0010393212 0.023088295
0.036801331 -0.00093437743 0.022668358
0.037937369 -0.00094454549 0.021764636
0.02465385 0.00025510011 0.021692201
0.026052279 0.00022011095 0.021691555
0.027616901 0.00029119354 0.021694934
0.0289445 0.00014249982 0.021622
0.031784795 0.00031814707 0.021692147
0.033349417 0.00097432372 0.022203602
0.034955442 0.00084789778 0.022918219
0.036866967 0.00085087796 0.0226328
0.038052708 0.00086523528 0.021753943
0.033374954 0.0025354854 0.022012932
0.035070993 0.0028141404 0.02226736
0.036953807 0.0028044183 0.022249375
0.038189191 0.0028455532 0.021829214
0.035546042 0.0039436538 0.021777539
0.036724396 0.0037735356 0.021832002
0.037811 0.0036439998 0.021676
-0.0094757397 -0.023792045 0.023630261
-0.0081581175 -0.023944072 0.023834616
-0.0064387619 -0.023796406 0.023690037
-0.0052157999 -0.023493601 0.023516001
-0.0108575 -0.021982498 0.023497
-0.009827299 -0.022442609 0.024024097
-0.0080294749 -0.022538027 0.024463292
-0.0060481555 -0.022403268 0.024151357
-0.0047759893 -0.02237937 0.023822974
-0.0028109143 -0.021929681 0.0237046
-0.0011113572 -0.021817427 0.023593571
0.00027933344 -0.021645 0.023440335
-0.011143618 -0.02046432 0.023692472
-0.009900542 -0.020712903 0.02441272
-0.0080695366 -0.02061009 0.024847573
-0.0060771243 -0.02087518 0.024710674
-0.004596482 -0.020749057 0.02471393
-0.0027697289 -0.020751046 0.024853867
-0.00086863519 -0.020922082 0.024659596
0.00090811111 -0.020561382 0.024586514
0.0026021767 -0.020406011 0.024225704
0.0043485756 -0.020109525 0.023853576
0.0055269999 -0.019831 0.023415001
-0.011273423 -0.019276155 0.023617581
-0.0098264338 -0.018861674 0.023987189
-0.0080708247 -0.018874334 0.024194796
-0.0064136535 -0.018902803 0.024412103
-0.0046817656 -0.01901109 0.024762169
-0.0030919444 -0.019210516 0.025118019
0.0015189999 -0.019704249 0.025142752
0.0027943635 -0.01962376 0.025035487
0.004631049 -0.019104766 0.024648925
0.0062031294 -0.018750742 0.024369366
0.0079204617 -0.018523566 0.023908675
0.0093847141 -0.018251931 0.02365493
-0.009864375 -0.017829625 0.023460312
-0.0078003262 -0.017575223 0.023518411
-0.0062319147 -0.017354019 0.023766542
-0.004612965 -0.017165417 0.024543662
-0.0031898334 -0.016650999 0.025074571
0.0064889067 -0.017835686 0.025020249
0.0081522213 -0.017694335 0.024752418
0.01003558 -0.017499091 0.024494004
0.011612755 -0.017087661 0.024307717
0.013587378 -0.0165605 0.023671756
0.014699963 -0.016376115 0.023732847
-0.0054642502 -0.01554125 0.02341475
-0.0044117728 -0.015207336 0.024029031
-0.0028954267 -0.015318404 0.024798965
-0.0017520001 -0.014524333 0.025156667
0.012142924 -0.015457439 0.024881983
0.013457075 -0.015451437 0.024223607
0.01532243 -0.015405782 0.023743423
0.017067101 -0.01522344 0.0240805
0.018856084 -0.015019085 0.024085267
0.020427812 -0.014719874 0.023738164
0.022023249 -0.014530499 0.023486501
-0.0054957499 -0.01289475 0.023455249
-0.0045710979 -0.013563529 0.023850854
-0.0027833204 -0.013734612 0.024468718
-0.0011486539 -0.013323176 0.025016095
0.00062581245 -0.012896063 0.025081625
0.0020964998 -0.01267775 0.025148001
0.011928464 -0.013500267 0.024822243
0.013522351 -0.013490749 0.023975018
0.01529283 -0.013983794 0.023553561
0.017300693 -0.013675127 0.023858404
0.018753981 -0.013419756 0.0240782
0.020647349 -0.013548143 0.024586795
0.022457737 -0.013427644 0.024363594
0.024155868 -0.01318975 0.02417703
0.02566872 -0.012839277 0.023885885
-0.005593847 -0.012291384 0.023515079
-0.0045700804 -0.011770112 0.023804659
-0.0026433768 -0.011750927 0.024273997
-0.00097905344 -0.0117194 0.024313111
0.00088742864 -0.011694905 0.02425359
0.0026508851 -0.011586173 0.024553616
0.0044111698 -0.011339488 0.024834299
0.0056442502 -0.01106825 0.025012748
0.010236959 -0.011351417 0.024888961
0.011693576 -0.011675904 0.024266154
0.013236566 -0.012036365 0.023633404
0.017843999 -0.012457001 0.023508001
0.019115405 -0.0120373 0.023893781
0.020766728 -0.011778377 0.024327273
0.022497034 -0.011941619 0.024728388
0.02441836 -0.011791888 0.024953462
0.026244398 -0.011751087 0.024610957
0.027704904 -0.011402339 0.024320038
0.029067539 -0.010997846 0.02365154
-0.0040370501 -0.01040235 0.0235516
-0.0026273916 -0.010150543 0.023682585
-0.00086967991 -0.0104544 0.023593478
0.00074619241 -0.010499539 0.023542577
0.0028362309 -0.010282538 0.023711639
0.0044199112 -0.0098552685 0.023953445
0.006324105 -0.0098365629 0.024546981
0.008227108 -0.0094694113 0.024862649
0.0099642584 -0.0096468553 0.024330361
0.011421467 -0.0098244036 0.0236407
0.021002078 -0.010176346 0.023630654
0.022698903 -0.0098360246 0.024036679
0.024261465 -0.0099615501 0.024629584
0.025629999 -0.0099841468 0.02506607
0.027996279 -0.01003315 0.024857637
0.029598787 -0.0099098505 0.02430105
0.031313922 -0.0095316386 0.023902152
0.032790668 -0.0092057781 0.023527
0.0048576668 -0.0088764988 0.0235005
0.006320639 -0.0085139703 0.023722362
0.0080528911 -0.0085075051 0.023902332
0.0095265955 -0.0089480532 0.023792459
0.016348999 -0.0072405003 0.023425501
0.020908119 -0.0082285767 0.023554256
0.022525586 -0.0077636009 0.023892144
0.024236625 -0.0078653814 0.024283092
0.025754755 -0.0078940894 0.02498669
0.028027365 -0.0080015073 0.024937563
0.029804727 -0.0081366245 0.024458323
0.031499092 -0.0082974341 0.024132323
0.0331957 -0.0080131842 0.023711707
0.015991755 -0.0067054844 0.023514451
0.016985679 -0.0062958426 0.023529429
0.018866165 -0.0059346454 0.023810221
0.02087744 -0.0061542117 0.023934653
0.022366498 -0.0065094256 0.024379287
0.024398297 -0.0065091336 0.024651447
0.026009083 -0.0062997169 0.024525929
0.027887104 -0.0062017059 0.024194974
0.02971361 -0.0062201605 0.023988944
0.031442579 -0.0063699135 0.023712359
0.033359714 -0.006501493 0.023540478
0.018947009 -0.0047263149 0.023718875
0.020768272 -0.0046185991 0.024082158
0.022533176 -0.0045095771 0.024140295
0.02422489 -0.0044008978 0.023975691
0.02614112 -0.0045434474 0.023727005
0.027882095 -0.0048760003 0.023656234
0.029397931 -0.0050795865 0.023560651
0.033850323 -0.0045439419 0.023439294
0.034594823 -0.004340257 0.023478229
0.019583 -0.0035800003 0.023418
0.020765867 -0.0034107333 0.023537267
0.022563444 -0.0033776548 0.023545826
0.024214059 -0.0032621762 0.023523854
0.025722999 -0.0035282499 0.023437001
0.034077499 -0.0034075002 0.023418002
0.034835894 -0.0032484648 0.023434965
