# .PCD v0.7 - Point Cloud Data file format
VERSION 0.7
FIELDS x y z
SIZE 4 4 4
TYPE F F F
COUNT 1 1 1
WIDTH 1288
HEIGHT 1
VIEWPOINT 0 0 0 1 0 0 0
POINTS 1288
DATA ascii
0.030454736 0.028194735 0.010566801
0.031533793 0.028002549 0.010004443
0.033004906 0.027707463 0.0094031496
-0.020347893 0.029067785 0.010398271
-0.018874086 0.029830076 0.0099575426
-0.017437801 0.030374132 0.0096094217
0.029989611 0.029884472 0.010330756
0.031310692 0.029630342 0.0094624581
0.032554399 0.0288912 0.0091472007
-0.016798517 0.03086789 0.010089384
-0.015267125 0.031670153 0.0099410228
-0.013662297 0.032071494 0.0095716044
-0.012349335 0.032196667 0.009166223
0.028654568 0.03214936 0.010587929
0.029593108 0.031500477 0.009836264
0.0306655 0.030737 0.009141
-0.014569555 0.032455001 0.010663445
-0.013437667 0.032742683 0.010376749
-0.011554427 0.033386484 0.0098480163
-0.010087639 0.03364262 0.009414929
-0.008830715 0.034067146 0.0092125721
0.026681527 0.033967525 0.010461843
0.02788686 0.033496737 0.010012593
0.029092459 0.032888029 0.009415485
-0.011088833 0.034393083 0.010534792
-0.0097685186 0.034675453 0.010328197
-0.0082901847 0.035274066 0.0097259562
-0.0070994999 0.035857998 0.0091795009
0.022837775 0.035515189 0.010541301
0.024359521 0.03535581 0.010113836
0.026104802 0.034974579 0.0096117845
0.027619783 0.034430135 0.0092562931
-0.0077470602 0.036633469 0.01036134
-0.0063048624 0.037100874 0.0097047593
-0.005072271 0.037518293 0.0092795417
0.020815689 0.037290592 0.010395706
0.022487411 0.036894497 0.010018104
0.024022751 0.03642894 0.0094799986
-0.0060140542 0.037981782 0.010427618
-0.0043683285 0.03834134 0.010015865
-0.0028321769 0.038833849 0.0098689832
-0.00091572816 0.03860765 0.0099475179
0.0009341308 0.038533226 0.0099606961
0.0027791238 0.038561251 0.010007123
0.0044326643 0.038615938 0.0099793673
0.0063553443 0.0387058 0.010017649
0.0081871338 0.038709722 0.0099385688
0.0098403469 0.039136782 0.009970163
0.011523825 0.039089359 0.0098417671
0.019380052 0.038940202 0.010500948
0.020559242 0.0385268 0.0099063264
0.022184171 0.038132001 0.0092406562
0.012362378 0.039803423 0.0097014206
0.013479025 0.04080293 0.0097470852
0.01592217 0.040667988 0.010640094
0.017122738 0.040508419 0.010184288
0.018770367 0.040440597 0.0097650606
0.020107314 0.040083338 0.0093125943
0.014271558 0.04148588 0.009817319
0.015262117 0.041793603 0.0098942341
0.016961697 0.04175318 0.0096189268
0.018346751 0.041585151 0.0092087518
-0.024349665 -0.030741084 0.010878584
-0.027404182 -0.028924093 0.010954092
-0.025837826 -0.029464936 0.011517871
-0.024409154 -0.029707402 0.011574269
-0.022749243 -0.02942707 0.011203242
-0.0214245 -0.02912025 0.01089675
-0.029271925 -0.027485654 0.011566039
-0.027998481 -0.028173072 0.011724531
-0.026368771 -0.028525835 0.012246982
-0.024219628 -0.028473621 0.012366523
-0.022451887 -0.027994657 0.011940793
-0.020831235 -0.027853182 0.011373696
-0.019349311 -0.027435124 0.011027062
-0.029809982 -0.026191998 0.011784801
-0.021853834 -0.026764002 0.012429001
-0.020604547 -0.026348054 0.01213521
-0.01895198 -0.026121654 0.01157529
-0.017264657 -0.025714684 0.011115761
-0.016076 -0.02534 0.010857
-0.030722704 -0.023727134 0.011675
-0.03034023 -0.024624081 0.011705888
-0.018681897 -0.02458135 0.012310101
-0.017033629 -0.024167152 0.01184434
-0.015460343 -0.02409965 0.011240364
-0.014084001 -0.023655556 0.010915001
-0.031152798 -0.022594705 0.011706798
-0.016742077 -0.02298812 0.012379999
-0.015355525 -0.022549199 0.01201779
-0.013558584 -0.022442397 0.011301552
-0.012195222 -0.021932663 0.01097239
-0.032539804 -0.0199428 0.0111169
-0.031998511 -0.020696452 0.011690738
-0.014842667 -0.021285836 0.012473335
-0.013419321 -0.020809308 0.012078508
-0.011701574 -0.020600015 0.011447366
-0.010328257 -0.020236226 0.011024419
-0.032992087 -0.01900211 0.01161824
-0.032359999 -0.019752 0.012488
-0.012866749 -0.019547375 0.012466
-0.011620758 -0.019092206 0.01216626
-0.0098438608 -0.018868886 0.011480941
-0.0084825959 -0.018524261 0.011052236
-0.03435038 -0.016510786 0.01169719
-0.033856116 -0.017386222 0.011814795
-0.011083 -0.017894501 0.012514001
-0.0097326534 -0.017253099 0.012210221
-0.0080773681 -0.01715005 0.011533322
-0.0066949506 -0.016811192 0.011048684
-0.035019666 -0.01527831 0.011846334
-0.0091920001 -0.016123001 0.012513
-0.0080560744 -0.015526961 0.012309147
-0.006347239 -0.015286612 0.011599813
-0.0048772665 -0.0148968 0.011053935
-0.036385715 -0.013125559 0.011699477
-0.03578718 -0.014051831 0.011797971
-0.0073540001 -0.01433 0.0125575
-0.0060294601 -0.013634357 0.012213042
-0.0045442665 -0.013370303 0.011632434
-0.0030156167 -0.013148887 0.011113967
-0.0017360001 -0.0126605 0.010838501
-0.037857499 -0.0108815 0.011105999
-0.037201867 -0.011771657 0.011825802
-0.0055950005 -0.01247925 0.01255225
-0.0042906497 -0.011897838 0.0123168
-0.0026951174 -0.011732839 0.011817228
-0.0010753154 -0.011472127 0.011247051
0.00017524994 -0.010884751 0.010880001
-0.038384426 -0.0097714635 0.011705285
-0.037751403 -0.0106996 0.0122678
-0.002407596 -0.010164676 0.012330757
-0.00093457289 -0.0098403431 0.011989209
0.00074148027 -0.0096660294 0.011288261
0.0019872503 -0.0091347499 0.010862251
-0.039845951 -0.0074957605 0.011634915
-0.039169811 -0.0084181512 0.01177108
-0.0005634285 -0.008455636 0.01239884
0.0008783238 -0.008125958 0.012005184
0.0025945741 -0.0079127746 0.011205561
0.00375125 -0.0073682503 0.010880999
-0.040562417 -0.0063185398 0.011748322
0.0013220004 -0.0066828192 0.012437017
0.0027340523 -0.006300827 0.011925154
0.0044454462 -0.0061108675 0.011124951
0.0055313334 -0.005593 0.010822001
-0.04173246 -0.0042898864 0.011729306
-0.041233998 -0.0051396489 0.011637135
0.0031225432 -0.0048144236 0.012398679
0.0045797485 -0.0043865582 0.011852646
0.0061803912 -0.0042324737 0.011208256
0.0073451996 -0.0037868002 0.0108978
-0.042745847 -0.0025178583 0.011701547
0.004783072 -0.0031476186 0.012297418
0.0063694282 -0.0028478166 0.011718397
0.0078594834 -0.002694645 0.011136372
0.0090894997 -0.0020710002 0.0108515
-0.043759033 -0.00073587161 0.011621817
-0.043143 -0.0017479999 0.012234399
0.0066225082 -0.0011818775 0.01234851
0.0080123898 -0.00085778482 0.011864597
0.0096709998 -0.0007415 0.011186999
0.010891999 -0.0002746667 0.010882333
-0.044249285 0.00081351213 0.011688822
0.0084539391 0.00058433338 0.012387606
0.0099560097 0.0011240907 0.011970489
0.011570877 0.0011930864 0.011266756
0.013484591 0.0014533488 0.011133734
0.01512185 0.0013787167 0.011001216
0.0165738 0.0016381001 0.010885401
-0.045082189 0.002913638 0.011242431
-0.044849787 0.0025539936 0.011875977
0.0102532 0.0023686669 0.012349021
0.011687518 0.0023385186 0.012161027
0.013509602 0.002665757 0.012029598
0.015254231 0.0027366895 0.011566699
0.01708914 0.0028866413 0.01122167
0.018682223 0.0031904601 0.01099142
0.019845001 0.0034779999 0.010818
-0.04521871 0.0045085121 0.011606517
-0.044982165 0.0037375835 0.012332833
0.013863074 0.003873222 0.012460482
0.01535738 0.0043661697 0.012209652
0.017105523 0.004437366 0.011776921
0.018853905 0.0045013069 0.011364358
0.020560825 0.0046895118 0.01102062
0.021911399 0.0052016662 0.010875867
-0.045741055 0.0063186833 0.011725981
0.016130999 0.0054779998 0.012504335
0.017296819 0.0059023555 0.012265165
0.018892169 0.0063346373 0.01188967
0.020697538 0.0062760161 0.011277929
0.02229281 0.0064566163 0.011006683
0.023670292 0.0068659997 0.010842823
-0.045487616 0.0080741122 0.011677478
-0.044843905 0.0087597668 0.011023435
0.018989759 0.0078765852 0.012315894
0.020746408 0.0080131646 0.011946605
0.022487868 0.0080246329 0.011410123
0.024037505 0.0081987204 0.010993196
-0.04505334 0.0090578329 0.012320167
-0.044229895 0.0097371908 0.011390612
-0.043083575 0.010705144 0.010977287
0.019425364 0.0092353635 0.012473546
0.020838393 0.0097888112 0.012314466
0.022516843 0.010005604 0.011955474
0.024266712 0.01001566 0.011333725
0.025424918 0.010194159 0.01092572
-0.043368999 0.010887374 0.012250999
-0.042508833 0.011603905 0.011719285
0.021524999 0.010985999 0.0124665
0.02261132 0.011533529 0.01230346
0.024236601 0.011724792 0.011850534
0.025958754 0.011759879 0.011189492
-0.041556608 0.012831566 0.011677044
-0.040787399 0.013722151 0.011562459
0.023203667 0.012751667 0.012537001
0.024553318 0.013292305 0.01223164
0.025924649 0.013595095 0.011823554
0.027635759 0.013740649 0.011097515
-0.040124282 0.015146314 0.011895369
-0.039257884 0.015876407 0.011196692
0.025043573 0.014538572 0.012479572
0.02621158 0.015179653 0.012258857
0.028002672 0.015323784 0.011490759
0.029229291 0.015596632 0.011028049
-0.039783351 0.016351823 0.012401117
-0.038709514 0.01672071 0.011765233
-0.037043363 0.017270178 0.011669937
-0.035228141 0.017673047 0.011303182
-0.034149997 0.017971501 0.0109335
0.026781572 0.016447715 0.012497001
0.027964953 0.016946033 0.012206322
0.029622836 0.017088633 0.011476452
0.030966444 0.017427703 0.011002481
-0.036064997 0.018100999 0.012456
-0.035056837 0.018328248 0.01212334
-0.033265065 0.019112673 0.011425906
-0.032356501 0.019754 0.0115295
0.028568536 0.018383402 0.012458534
0.029692724 0.018877527 0.012088301
0.031519495 0.018984312 0.011285633
0.032446504 0.019239333 0.010844
-0.032736488 0.020054458 0.011188264
-0.031718936 0.020917248 0.011529767
-0.030380625 0.02147246 0.010968169
0.02989318 0.020697581 0.012209695
0.031466145 0.020635642 0.011309756
-0.030962851 0.022179177 0.012111407
-0.030013641 0.022718327 0.011632637
-0.028638 0.023364 0.010881
0.029715335 0.022506723 0.012035404
0.031126272 0.022385648 0.011128247
-0.029501339 0.023972778 0.012088913
-0.028285356 0.02460755 0.011456405
0.02965036 0.024362491 0.011972582
0.031005936 0.024433784 0.011070652
-0.027677599 0.025676571 0.012017922
-0.026245158 0.026429523 0.011581207
-0.024886454 0.026820913 0.011076365
0.028475216 0.026524348 0.012517435
0.029747227 0.026057441 0.011865783
0.031022806 0.025907144 0.011064887
-0.025736768 0.027188694 0.012355846
-0.024123244 0.027725128 0.011887094
-0.022550678 0.0283754 0.011550322
-0.02151043 0.028714001 0.010921428
0.026917432 0.027755002 0.012572573
0.027968971 0.028021675 0.012331256
0.02958243 0.027701795 0.011549546
0.030607998 0.027217999 0.010835
-0.021952448 0.029000049 0.012049423
-0.020786392 0.029482951 0.011664824
-0.019237867 0.0302542 0.011416466
0.026531467 0.029962562 0.012515434
0.028020417 0.029730082 0.012022763
0.029110836 0.029762002 0.011224366
-0.018568872 0.030954776 0.01203237
-0.017048033 0.031488754 0.011677825
-0.015860999 0.032062706 0.011293891
0.025126385 0.03142146 0.012567308
0.025996964 0.031585097 0.012304382
0.027976088 0.031598676 0.011432815
0.028919166 0.030925419 0.010941334
-0.016287887 0.032535333 0.012420778
-0.015201907 0.032886345 0.011810137
-0.013664146 0.033573616 0.011497761
-0.012246715 0.034034785 0.011036145
0.022920474 0.034010913 0.012498262
0.024539005 0.033567745 0.01228042
0.026031895 0.033302266 0.011653405
0.027433859 0.032727949 0.01115675
-0.013139252 0.034517463 0.012255429
-0.011571291 0.035156194 0.011747852
-0.010142123 0.035503875 0.011331359
-0.0088975001 0.035923 0.0108575
0.019533159 0.035787422 0.01238621
0.020828234 0.035511948 0.011944358
0.022394134 0.035058118 0.011766047
0.024224484 0.034652453 0.011503094
0.025469482 0.034448665 0.011100695
-0.010951572 0.036081716 0.012459002
-0.0096963514 0.036736209 0.012128297
-0.0083456337 0.037191048 0.011369189
0.019290306 0.03695574 0.012198309
0.020444727 0.036641415 0.011341799
0.021801418 0.036357332 0.010889335
-0.0090962499 0.037921749 0.012534999
-0.0079213707 0.038197689 0.011939077
-0.0063045188 0.038569465 0.011727071
-0.004550274 0.039060764 0.011509871
-0.0026434716 0.039423585 0.011149083
-0.00089296763 0.039299175 0.011397228
0.00081642263 0.039302517 0.011521148
0.002829944 0.039215684 0.011339988
0.0044619497 0.039280698 0.01135147
0.006405028 0.039325189 0.011287183
0.0081209699 0.039263368 0.011119626
0.0097635873 0.039445046 0.011070853
0.011492876 0.039414354 0.010987225
0.013947641 0.039411161 0.012372199
0.015452423 0.039272204 0.011968098
0.01702798 0.039326571 0.012130204
0.018802699 0.038639031 0.011574102
-0.0040942822 0.039784342 0.012167615
-0.0028830483 0.039879713 0.012001638
-0.00090983772 0.03974089 0.012258082
0.00077884621 0.039743099 0.012377867
0.0028980011 0.039780386 0.012286059
0.0044554039 0.039827149 0.012234231
0.0062070712 0.039889824 0.012145799
0.0082246102 0.039992213 0.012059027
0.0099739265 0.040074043 0.011985897
0.011809523 0.040000532 0.011867779
0.013550526 0.040442917 0.011766416
0.014969723 0.040487759 0.011170487
0.017114021 0.039827596 0.011380303
0.018267373 0.039825808 0.010935375
0.014719144 0.041452717 0.010847287
-0.028932123 -0.027127124 0.01273575
-0.027851583 -0.027317971 0.013027444
-0.02607898 -0.027688496 0.013249808
-0.024615703 -0.027710235 0.012991508
-0.0231345 -0.027147749 0.012757001
-0.029454332 -0.025970431 0.013477211
-0.028051853 -0.026555225 0.01389308
-0.026135245 -0.026555654 0.014104445
-0.024290597 -0.0261763 0.013800685
-0.022554103 -0.025940849 0.013211879
-0.021182645 -0.025573714 0.012825358
-0.030673588 -0.023531847 0.013499124
-0.030351739 -0.024224469 0.01370238
-0.023720084 -0.024927666 0.014256502
-0.022289312 -0.024411211 0.013937051
-0.020847077 -0.024226658 0.013456064
-0.01918084 -0.023888161 0.01290668
-0.030983603 -0.022713671 0.013477424
-0.02177 -0.023213001 0.014396
-0.020465622 -0.022864798 0.014061918
-0.018984202 -0.022410745 0.013659083
-0.017208125 -0.022442263 0.012891323
-0.015962889 -0.021817222 0.012708001
-0.031825077 -0.020740135 0.013340198
-0.018573821 -0.021187276 0.014137639
-0.017066117 -0.020691866 0.013730899
-0.015422013 -0.020598371 0.013070917
-0.014080499 -0.020114625 0.012716375
-0.032818198 -0.018725656 0.013348327
-0.032313373 -0.019585375 0.013608042
-0.016662896 -0.019427892 0.01418242
-0.015310918 -0.019031517 0.013790087
-0.013521129 -0.018853178 0.013115369
-0.012181187 -0.018395813 0.012767187
-0.034244146 -0.016298428 0.013053571
-0.033691876 -0.017199384 0.013508075
-0.0147258 -0.0176697 0.014225299
-0.013355195 -0.017186968 0.013877502
-0.011679604 -0.016984582 0.013240581
-0.0103972 -0.016572099 0.0128517
-0.034742054 -0.015312322 0.013451686
-0.034196999 -0.01612 0.014188
-0.012886374 -0.015929749 0.0142825
-0.011501051 -0.015400304 0.013910025
-0.0099572381 -0.015272821 0.013289184
-0.0084997499 -0.014837842 0.012871063
-0.036228236 -0.012965098 0.013335624
-0.035609167 -0.013850689 0.013628711
-0.011083615 -0.014189848 0.014280847
-0.0097483136 -0.013632696 0.013965222
-0.0081529254 -0.013416978 0.013407344
-0.0067353453 -0.013076035 0.012844414
-0.036910046 -0.011681945 0.013600258
-0.0091161672 -0.012415166 0.014283834
-0.0079993904 -0.011907915 0.01400967
-0.0063493736 -0.011606838 0.013418891
-0.0048391037 -0.011254222 0.012884238
-0.038032051 -0.0096684089 0.013329649
-0.037511498 -0.010419055 0.013760564
-0.0073055006 -0.010727501 0.0143665
-0.0059923786 -0.010233274 0.014117806
-0.0046112752 -0.0099097053 0.013613955
-0.0030108348 -0.0095386282 0.01304845
-0.039689999 -0.0072965007 0.012651251
-0.038838431 -0.0081376284 0.01342599
-0.0042099529 -0.0083993953 0.014190304
-0.0027069843 -0.00802215 0.013762366
-0.0010548488 -0.0077827801 0.01305933
0.00012900014 -0.0073196664 0.012650333
-0.040222172 -0.0062124995 0.013406362
-0.039467886 -0.006969118 0.013926413
-0.0024266231 -0.0065741688 0.014147586
-0.00095477962 -0.0062779742 0.013702068
0.00068263523 -0.0061422233 0.012997317
0.0019930007 -0.0054210001 0.012654
-0.041638236 -0.0041526407 0.0133212
-0.041089118 -0.0049269414 0.013660288
-0.00064629823 -0.0048655076 0.014083182
0.00091312488 -0.0044775493 0.013563383
0.0024571957 -0.0043188254 0.012937678
0.0036299995 -0.0036599999 0.012655
-0.042436138 -0.0026521729 0.013517451
0.0012873937 -0.0030245571 0.014061605
0.0027348369 -0.0027022744 0.013458772
0.0041482337 -0.0024915535 0.012902961
-0.04377031 -0.00051311601 0.01359453
-0.043059893 -0.0016385788 0.013536896
0.0030630175 -0.0012308646 0.014031813
0.0045054113 -0.00093154161 0.013372402
0.0059134914 -0.00051532296 0.012859772
-0.043932427 0.00092132331 0.013534945
0.0048275194 0.00054725318 0.014011079
0.0062418189 0.00089374685 0.013371031
0.008064759 0.0011720737 0.012790773
0.0091832001 0.0017513999 0.0126844
-0.044385549 0.0025922651 0.013615875
-0.031274229 0.0030419515 0.014210163
-0.029976789 0.0029671611 0.014291162
0.0066531589 0.0024639252 0.013889072
0.0081582032 0.0028673455 0.013351355
0.0096295672 0.0029156439 0.012938662
0.011663565 0.003259999 0.012828724
0.012733917 0.0033982499 0.012686084
-0.045227565 0.0046398048 0.013304082
-0.044648733 0.0043923124 0.013979894
-0.042305615 0.0049107452 0.014029705
-0.040265776 0.0050463434 0.014086688
-0.038696811 0.0050006406 0.014267449
-0.037041109 0.0051372498 0.014329425
-0.034485076 0.0051004998 0.014320357
-0.033264566 0.0047068177 0.014235502
-0.031687975 0.0043735034 0.014204515
-0.030224517 0.0042903447 0.014320724
0.0071660001 0.003726 0.014358
0.0082760146 0.0041613863 0.014043459
0.0099202218 0.0043816343 0.013791841
0.01169107 0.0044968147 0.013426932
0.013414394 0.0045189718 0.012888437
0.014945722 0.005128555 0.01275614
-0.045563456 0.0063708629 0.013528113
-0.044244032 0.0063329083 0.013849096
-0.042415354 0.0061577763 0.013656323
-0.040426936 0.00621732 0.013708303
-0.038721085 0.0062915194 0.013957329
-0.037035085 0.0065098405 0.014173157
-0.034952115 0.0065764319 0.014262771
-0.033268217 0.0061203758 0.01412016
-0.031756543 0.0060665091 0.014255506
-0.030429 0.005415 0.014398
-0.018801 0.0071405 0.014392501
0.010544908 0.005612364 0.014308548
0.01191056 0.0060504503 0.014092042
0.013433572 0.0063670077 0.013702807
0.015351222 0.0062559005 0.013085806
0.016829386 0.0066829533 0.012842708
-0.045580205 0.0082086688 0.013802492
-0.044215847 0.0072843074 0.014344924
-0.042268947 0.0074450527 0.014240667
-0.040478859 0.0076136715 0.014216638
-0.038677067 0.0078192372 0.014200523
-0.036831692 0.0078506107 0.01420491
-0.035203755 0.0077562574 0.014298303
-0.033656336 0.0073340004 0.014339499
-0.0236695 0.008959 0.0143855
-0.022102483 0.0087768938 0.014246644
-0.020610236 0.0083919307 0.014148331
-0.019119697 0.0083099455 0.014140018
0.013887987 0.007716611 0.01419079
0.015233412 0.008045176 0.013773747
0.017120935 0.0080341585 0.013156291
0.0181666 0.0081039192 0.01270704
-0.045102537 0.0091607505 0.013962064
-0.044392753 0.010025846 0.013573983
-0.023732875 0.009376796 0.014298887
-0.022682307 0.0093309777 0.01424785
-0.020750718 0.0094190864 0.014177911
-0.018793663 0.009624945 0.014156686
-0.017170396 0.010142235 0.014238087
-0.016098 0.010759 0.014383
0.01561537 0.0094458042 0.014131088
0.017188288 0.0098595498 0.013690254
0.018758863 0.010046179 0.013124954
0.020231141 0.010550929 0.012736072
-0.043481499 0.011267127 0.013762832
-0.04280078 0.011978693 0.013406617
-0.018188 0.0108565 0.0143855
-0.016973212 0.011005525 0.014336737
-0.016032999 0.010828 0.014399
0.017467309 0.011244697 0.014163059
0.018785281 0.011633526 0.013859204
0.020699726 0.011718259 0.013076455
0.022083525 0.01220479 0.012749894
-0.041791428 0.013289868 0.013631311
-0.041143484 0.014028816 0.013267061
0.019432442 0.012947241 0.01423836
0.020638267 0.013594576 0.013943357
0.022482494 0.013644124 0.013191545
0.023822241 0.013979857 0.012770286
-0.040785644 0.015454658 0.013570668
0.021167221 0.014836166 0.014249167
0.022504767 0.015332711 0.013851469
0.02431835 0.015296334 0.013069199
0.025576841 0.015747601 0.012727879
-0.040240727 0.016794177 0.013566159
-0.038792081 0.017551471 0.013258619
-0.037343051 0.017842947 0.012826526
0.022945127 0.016651871 0.014186386
0.024268638 0.017048752 0.013750263
0.026001416 0.017078819 0.013040206
0.027364302 0.017666399 0.0127234
-0.038390357 0.018206708 0.01408039
-0.036916304 0.018496735 0.013673518
-0.035138108 0.019207431 0.013496108
-0.033888415 0.019552086 0.012957751
0.024732593 0.018747676 0.014202595
0.026061365 0.018962745 0.013735381
0.027722858 0.019052466 0.013054164
0.028886333 0.019584 0.012651334
-0.034532897 0.019984681 0.014163315
-0.033249531 0.020641228 0.013462978
-0.032138694 0.021372616 0.012934846
0.025103331 0.02076292 0.014368082
0.026122596 0.020740742 0.013986887
0.027868526 0.02072504 0.013285276
0.02902407 0.0208796 0.012736502
-0.03271579 0.022144256 0.014057463
-0.031617075 0.022707691 0.013436445
-0.030348537 0.023247667 0.012718934
0.023079624 0.023209125 0.01433575
0.024399575 0.022724446 0.014215485
0.026061041 0.0224506 0.01387554
0.028004317 0.022550173 0.013176497
0.028925385 0.02229272 0.012689388
-0.031000059 0.023920948 0.01393698
-0.030009534 0.024522301 0.013413158
-0.028791999 0.025185 0.012639
0.021438498 0.025013249 0.014368501
0.022531664 0.024434987 0.014207913
0.024286263 0.024362352 0.013892721
0.026048325 0.024309196 0.013536681
0.028077155 0.024242774 0.012982219
0.028847542 0.024156617 0.012626078
-0.029265417 0.025530271 0.013849432
-0.027933035 0.026319604 0.013410053
-0.026836274 0.026922639 0.012825363
0.019339833 0.02686175 0.014352167
0.020924781 0.026233934 0.014247879
0.022504326 0.026110504 0.013978908
0.024354445 0.026080383 0.013596909
0.026049029 0.026189163 0.013135921
0.027899768 0.026033035 0.012766223
-0.027131898 0.027124947 0.0137615
-0.026165446 0.027762795 0.013570545
-0.024454989 0.028467564 0.013262999
-0.023279125 0.028692249 0.012786375
0.019556023 0.027562473 0.014199025
0.020592783 0.027969506 0.013924232
0.022504574 0.027845915 0.013625742
0.024322936 0.027865343 0.013309675
0.026082028 0.027724894 0.012871931
0.027285572 0.027131001 0.012647
-0.025250999 0.028811 0.014328
-0.024059078 0.029085893 0.013925721
-0.022558201 0.029631265 0.013628501
-0.020972392 0.030214943 0.013173235
-0.019638 0.030598998 0.012639
0.021058183 0.029529389 0.01389957
0.022409894 0.029883852 0.013152447
0.024146186 0.029904766 0.012913482
0.025774019 0.029523622 0.012731262
-0.020323614 0.030939167 0.013819771
-0.018902635 0.031517193 0.013391888
-0.017524948 0.032065254 0.013024567
0.02131661 0.031636283 0.014163039
0.022605138 0.031417552 0.013287775
0.024209015 0.031371061 0.012856981
-0.018187167 0.032532167 0.014175834
-0.016856724 0.033076815 0.013702277
-0.015650891 0.033703808 0.013337151
-0.014385 0.034139998 0.012738
0.019237777 0.033803206 0.0140471
0.020775655 0.03331393 0.01358136
0.022317626 0.033217456 0.013129141
0.024003886 0.032808073 0.012736117
-0.014985852 0.034615468 0.013927628
-0.013646692 0.035208985 0.013454949
-0.01214204 0.035715885 0.012830194
0.017358568 0.035585742 0.01396817
0.01886731 0.035121564 0.013300459
0.020819807 0.034545459 0.012819236
0.021852402 0.034483004 0.012716799
-0.012991313 0.036257874 0.014138404
-0.011493022 0.036910411 0.013632044
-0.010345156 0.037384927 0.013113871
0.013979593 0.037432425 0.014134079
0.015375398 0.037177201 0.014055199
0.016988117 0.0368829 0.013721534
0.018433869 0.036653724 0.012895188
-0.010807 0.037815999 0.014348
-0.0096994825 0.038240362 0.013661857
-0.0081509994 0.039065782 0.013362561
-0.006451536 0.039416846 0.012875464
0.012089949 0.039200656 0.014024535
0.013508555 0.038693599 0.013495531
0.015249463 0.038515072 0.013189671
0.017006893 0.038427707 0.013048737
0.018204637 0.038101181 0.012673001
-0.0075441906 0.039774098 0.014070237
-0.0061249183 0.040021524 0.013717249
-0.004562364 0.040212207 0.013513493
-0.0027154114 0.040557519 0.013530122
-0.00077682169 0.040397041 0.01349208
0.00075664173 0.04047066 0.013441114
0.002771524 0.04065074 0.013582784
0.0044100136 0.040695179 0.01347279
0.0062034903 0.040784094 0.013255962
0.0081443461 0.040894628 0.013038225
0.010062652 0.041101459 0.013444221
0.011664084 0.040214445 0.013309756
0.0128926 0.039879173 0.012778343
0.0049494999 0.041497245 0.014248814
0.0064297467 0.041671049 0.014096293
0.0080593815 0.041611597 0.013967555
0.0094007468 0.04146722 0.013758694
-0.029073954 -0.025449274 0.014628863
-0.027832059 -0.025709311 0.01475215
-0.026166268 -0.02563142 0.014682902
-0.0249025 -0.025311377 0.014536999
-0.030622501 -0.0234685 0.014487499
-0.029711012 -0.024156228 0.015237111
-0.02785225 -0.024243208 0.015660599
-0.026201649 -0.024273938 0.015471394
-0.024383049 -0.024076246 0.015015587
-0.023002086 -0.023763251 0.014552793
-0.030974966 -0.022499144 0.015312055
-0.030377366 -0.023192188 0.015817739
-0.027150501 -0.023385499 0.016143501
-0.026011219 -0.023024091 0.01599809
-0.02433018 -0.022676291 0.01577791
-0.022561552 -0.022507092 0.015132413
-0.021099068 -0.022100104 0.014723586
-0.031719703 -0.020604685 0.015499031
-0.023445001 -0.021426 0.016144
-0.022232309 -0.02099384 0.015825186
-0.020881442 -0.02058794 0.015480233
-0.019152462 -0.020371072 0.01480124
-0.017937001 -0.019908 0.014505
-0.032725316 -0.018598747 0.015232561
-0.032166179 -0.019498026 0.015609843
-0.020362288 -0.019413192 0.015929839
-0.018880906 -0.018963827 0.015445048
-0.017322509 -0.01878795 0.014811973
-0.015937168 -0.018197 0.014504167
-0.03347595 -0.017270895 0.015297113
-0.018457908 -0.017588183 0.016009271
-0.017118748 -0.017168939 0.015567124
-0.015474076 -0.016937923 0.014919284
-0.014171166 -0.016536001 0.014550999
-0.034610793 -0.015115667 0.015303207
-0.034124691 -0.016043413 0.015470862
-0.016687199 -0.015834799 0.016054301
-0.015326625 -0.015353333 0.015672559
-0.013585529 -0.015210642 0.014954729
-0.012263 -0.014767209 0.014550683
-0.036101501 -0.012765874 0.014830874
-0.03538147 -0.013606282 0.015403988
-0.014777499 -0.014135501 0.016076801
-0.013355976 -0.013466736 0.015729869
-0.011759504 -0.013465151 0.014960934
-0.010370038 -0.012945518 0.014597702
-0.036463499 -0.01174095 0.015187036
-0.035853501 -0.012330773 0.016029729
-0.012877124 -0.012349625 0.016077751
-0.011564773 -0.011825547 0.015725568
-0.0099746762 -0.011660184 0.015048402
-0.0084737763 -0.01117292 0.014613507
-0.037921827 -0.009269828 0.015070828
-0.037186757 -0.009813318 0.015429087
-0.011052 -0.010618236 0.016096648
-0.0097593954 -0.010036608 0.015798911
-0.0080502713 -0.0099047394 0.015118761
-0.0064335894 -0.0095847249 0.014660272
-0.005336334 -0.0091273338 0.014417334
-0.038480703 -0.0081156939 0.015521551
-0.037737601 -0.0089387996 0.016135801
-0.0090856664 -0.0089346673 0.016116334
-0.0078558009 -0.0083876699 0.015878409
-0.0062666098 -0.0081221079 0.015336392
-0.0047880462 -0.0078241816 0.014724444
-0.039948866 -0.0058957227 0.015269235
-0.039336544 -0.0067002689 0.015470576
-0.0059454818 -0.0066385516 0.015954981
-0.004547568 -0.0063029388 0.015467691
-0.0030151054 -0.0060500358 0.014760333
-0.041517407 -0.0038169192 0.015135379
-0.040955853 -0.0045318501 0.015525805
-0.004190865 -0.0049602496 0.015991846
-0.0026956808 -0.0044357274 0.015556645
-0.0012072054 -0.0042861789 0.014810263
-0.042119529 -0.0027577353 0.015382477
-0.041385002 -0.0035655 0.016188499
-0.034343667 -0.0019673333 0.016126668
-0.033435792 -0.002386647 0.016051175
-0.031798705 -0.0022004314 0.016098471
-0.0296955 -0.0018355 0.0161855
-0.027549172 -0.0022143498 0.016011698
-0.026132649 -0.0025408911 0.016004523
-0.024619374 -0.0019135001 0.016152501
-0.0231364 -0.0019166 0.016179401
-0.0022580584 -0.0031213139 0.015940372
-0.00087298336 -0.0026313819 0.015495805
0.00060778996 -0.0023765396 0.0148304
-0.043580431 -0.00044950176 0.015469408
-0.042957671 -0.001434016 0.015608804
-0.036054999 -9.2000031e-05 0.016192
-0.034864336 -0.00072409684 0.015960677
-0.033440698 -0.00095941679 0.015744565
-0.031414486 -0.00082733331 0.015877333
-0.029749775 -0.00090315554 0.015866378
-0.027929924 -0.00091656111 0.015577269
-0.026005317 -0.0009226434 0.015563799
-0.024331948 -0.00090041576 0.015750118
-0.022547957 -0.00081865606 0.015983533
-0.020622423 -0.00087886211 0.016091909
-0.019054627 -0.00057010719 0.016058967
-0.017860999 -6.7999965e-05 0.016171001
-0.00056767452 -0.0013288837 0.015940951
0.00090577337 -0.00092712126 0.015377885
0.0023197043 -0.00068255543 0.014714924
-0.043593053 0.00080518075 0.015393907
-0.042787336 0.0016115716 0.016181525
-0.040258102 0.0013622168 0.016054362
-0.038625252 0.0012850408 0.016031096
-0.036840271 0.0011102175 0.015978612
-0.035179671 0.00081843347 0.015612284
-0.033272959 0.00096967147 0.015418974
-0.031585589 0.00090184319 0.015324822
-0.029748268 0.00077290164 0.015130533
-0.027904466 0.0009797191 0.014996763
-0.026072115 0.00095771597 0.015134953
-0.024352526 0.00084958575 0.015329237
-0.022370011 0.00096418208 0.01572768
-0.020923056 0.00081881916 0.015838047
-0.018765777 0.00096843048 0.015789667
-0.017329 0.0009810857 0.015972018
-0.015979802 0.0016273999 0.0161142
0.0012161135 0.00061004848 0.015955031
0.0026873709 0.00098144449 0.015344303
0.0042082132 0.0012431365 0.014707305
-0.043869115 0.0026636468 0.015229578
-0.042317253 0.002567519 0.015673317
-0.040559933 0.0026112276 0.015614527
-0.038674828 0.0026767384 0.015533952
-0.036877275 0.0026984999 0.015319077
-0.035249989 0.0026550097 0.015089095
-0.033162214 0.002680958 0.014814205
-0.031716231 0.0024356628 0.014615232
-0.029523764 0.0022868935 0.014518077
-0.027919296 0.0026018203 0.014622529
-0.026131045 0.002654836 0.014955609
-0.024362294 0.0026587017 0.015286056
-0.022488603 0.002765541 0.015572268
-0.020789932 0.0026986289 0.015546256
-0.018705651 0.0027744034 0.015410766
-0.017316794 0.0027270522 0.015406428
-0.015460455 0.0027412104 0.01585174
-0.013960223 0.0032529996 0.016109223
0.0029879566 0.0024790878 0.015902473
0.0046044267 0.0027048178 0.015215947
0.0059140464 0.0029919529 0.0146975
-0.044290654 0.0039585396 0.014620945
-0.04239051 0.0040139831 0.014709475
-0.04042317 0.004149267 0.014727804
-0.038622938 0.0041707279 0.014754804
-0.036849204 0.0043217642 0.014617747
-0.03528364 0.0044302312 0.014590344
-0.033587143 0.0038968567 0.014475763
-0.029316705 0.0047379411 0.01454412
-0.027813654 0.004543276 0.01483203
-0.02607597 0.0044868919 0.015172284
-0.024223121 0.00452596 0.015480337
-0.022551687 0.0045289574 0.01550175
-0.020868571 0.0045643076 0.015273702
-0.018638622 0.0045545138 0.015080682
-0.017395798 0.0044476325 0.014936311
-0.015371832 0.0044921022 0.015457287
-0.013481925 0.0045859809 0.015929962
-0.012318859 0.005078 0.016118001
0.0047734329 0.0041147922 0.015877113
0.0063744378 0.0045255288 0.015397301
0.0078362133 0.0049753119 0.014807424
0.0093196668 0.0053209998 0.014439001
-0.03623046 0.0058392733 0.014421272
-0.035577111 0.0058174073 0.014435815
-0.031021832 0.0066641048 0.014435083
-0.029659638 0.0064062262 0.014624595
-0.027933178 0.0063478993 0.014989597
-0.026107524 0.0063612969 0.015280472
-0.024183638 0.0062022242 0.015466436
-0.022497289 0.0062587792 0.015167695
-0.020803712 0.0063893865 0.014735407
-0.018718161 0.0062288642 0.014678037
-0.017209079 0.0062036798 0.014873011
-0.015372719 0.0063571092 0.015307427
-0.01340664 0.0063784565 0.015713673
-0.011695441 0.0064488249 0.016026089
-0.010633285 0.0070012854 0.016173145
0.0068098232 0.0058066761 0.015991617
0.0082302019 0.0063548251 0.015468419
0.0097703524 0.0063405419 0.014946526
0.011272578 0.0067956545 0.014557811
-0.045226827 0.0078040874 0.014459198
-0.044210214 0.0080831926 0.014579683
-0.042549994 0.0084212441 0.014654133
-0.040496033 0.0085651828 0.014522305
-0.038750187 0.0086838445 0.014490376
-0.036860745 0.0087901028 0.014457692
-0.034981664 0.0086557427 0.014509832
-0.033309415 0.0083591761 0.014641677
-0.031526968 0.0080365855 0.014731188
-0.029546214 0.0079872673 0.014879685
-0.027878936 0.0082527576 0.015056252
-0.025994405 0.0081013553 0.015281047
-0.024262482 0.0081765978 0.015225064
-0.022568448 0.0079758791 0.014811656
-0.021151066 0.0076473788 0.014601261
-0.018180728 0.0077780001 0.014458545
-0.017059613 0.008233387 0.014725204
-0.015485505 0.0081437435 0.01498213
-0.013427784 0.0081568239 0.015416648
-0.011678866 0.0081748348 0.0158445
-0.010455106 0.0081538707 0.016116321
0.0084640849 0.0074277148 0.016060056
0.009850909 0.0079363612 0.015878696
0.011725344 0.0080486992 0.015109046
0.013324774 0.0084518604 0.01463707
0.014501 0.0088534998 0.0144165
-0.044033393 0.0098080235 0.014698865
-0.042390056 0.0099172955 0.015031051
-0.040502578 0.0099539375 0.014964396
-0.038661387 0.0099354107 0.014849626
-0.036880061 0.0097169839 0.014749479
-0.035230704 0.0099017881 0.014825944
-0.033222254 0.0099580586 0.015096096
-0.031667415 0.0099650379 0.015273112
-0.02950955 0.0099547515 0.015453442
-0.027785627 0.010013442 0.015452068
-0.026007105 0.010017383 0.015566009
-0.024331814 0.0099263564 0.015332685
-0.022618936 0.010381032 0.01457222
-0.020811584 0.010368291 0.014537583
-0.019251166 0.010508499 0.014498668
-0.016810367 0.0092436308 0.014470632
-0.015216938 0.0099625392 0.014750358
-0.0135188 0.009958325 0.01519697
-0.011620269 0.0098017072 0.015711538
-0.010650479 0.009780826 0.016113957
0.010755001 0.0090894997 0.016153999
0.011861186 0.0096017458 0.015945915
0.013465248 0.0098022642 0.015248192
0.015087519 0.010156874 0.014660339
-0.043465365 0.01134585 0.014807557
-0.042463623 0.011864874 0.015304782
-0.040519044 0.01168446 0.015483249
-0.038651709 0.011673955 0.015306004
-0.036918975 0.011712631 0.015258356
-0.035212111 0.011678738 0.015318212
-0.033268973 0.011664096 0.015465084
-0.031595849 0.011717818 0.015784562
-0.029538756 0.011529448 0.015974667
-0.027795907 0.011375842 0.015901482
-0.026088051 0.011441894 0.015964163
-0.024219716 0.011669663 0.015455099
-0.022642551 0.011670988 0.015080211
-0.020744076 0.011738026 0.015113274
-0.018944534 0.011762745 0.014946518
-0.017120821 0.011848399 0.014704178
-0.015237193 0.01169592 0.014871222
-0.013380138 0.011706993 0.015052667
-0.011777863 0.011800715 0.015359555
-0.01062318 0.011901393 0.016091859
0.013865508 0.01149798 0.015926927
0.015259073 0.011776838 0.015354089
0.017010722 0.011990169 0.014677829
0.018225899 0.012417201 0.0144696
-0.042057242 0.013322078 0.015486794
-0.040631156 0.013690845 0.015981942
-0.038585704 0.013443767 0.015788238
-0.037039366 0.013577683 0.015633356
-0.035086595 0.013448869 0.01573823
-0.033303041 0.013263846 0.015893372
-0.031857438 0.013045846 0.016080717
-0.025479104 0.013228931 0.016063035
-0.024348041 0.013401057 0.015679557
-0.022404559 0.013515619 0.015689518
-0.020676771 0.013590269 0.015788492
-0.018939827 0.013494381 0.015472715
-0.01717774 0.013525743 0.015414907
-0.015268144 0.013399145 0.015344101
-0.01343714 0.013395349 0.015305067
-0.011571321 0.013510298 0.015625762
-0.010074631 0.013667947 0.0159657
-0.0081444802 0.013909766 0.016066656
-0.0068029161 0.013615309 0.016127521
0.014386499 0.012754 0.016167499
0.01540619 0.013327266 0.01594159
0.017072 0.013472778 0.015244666
0.018812595 0.013540653 0.014659052
0.020022769 0.014106081 0.014453847
-0.041565184 0.014679543 0.015508201
-0.040871125 0.015371313 0.015623491
-0.038970884 0.015271026 0.016133502
-0.036851432 0.014993278 0.015997065
-0.035365745 0.015301998 0.016044712
-0.0340795 0.01465775 0.0161465
-0.02444673 0.015054174 0.015979543
-0.022506278 0.014801223 0.016077777
-0.020350801 0.015039197 0.016096415
-0.018942099 0.015120197 0.015957374
-0.017095 0.015022553 0.015985001
-0.015399096 0.015007459 0.015960898
-0.013445378 0.015030701 0.015975481
-0.011753553 0.014896136 0.015999414
-0.010015171 0.014757916 0.016076259
-0.0080668181 0.014726275 0.016122727
-0.0066510774 0.014583537 0.016156306
0.016035222 0.014646 0.016101668
0.01723776 0.015157144 0.01585507
0.018835776 0.015368153 0.015217368
0.020553824 0.015426196 0.014662195
0.021779751 0.016095001 0.01446675
-0.040578913 0.016946612 0.015471949
-0.038690541 0.017270502 0.016062839
-0.037760001 0.017992999 0.016197
0.017799571 0.016362287 0.016138716
0.018926684 0.017037198 0.015846193
0.020585798 0.017075948 0.015204006
0.02240245 0.017235722 0.014609699
0.023584999 0.0178905 0.014411001
-0.038630042 0.01851682 0.015513566
-0.037185874 0.019191038 0.015529805
-0.035686094 0.019649906 0.014882999
0.017888 0.019461626 0.016173748
0.018871194 0.018848453 0.015993966
0.020719372 0.018909922 0.015531484
0.022464719 0.01896899 0.015035577
0.023957016 0.019093975 0.014607904
-0.036305256 0.02005739 0.015970763
-0.035247285 0.020536238 0.015339879
-0.033970002 0.02129373 0.014649546
0.014159599 0.0213724 0.016169399
0.015629038 0.021099005 0.016109927
0.017104389 0.0208266 0.01586402
0.018956611 0.020792184 0.015723579
0.02071164 0.020745263 0.015381245
0.022453176 0.02072401 0.015042882
0.02431524 0.020607408 0.014605168
-0.034749087 0.022108763 0.015856946
-0.033472657 0.022775421 0.015299556
-0.032194097 0.0232608 0.0145175
0.014200777 0.021989001 0.016149445
0.015286269 0.022532534 0.015899491
0.017040888 0.022484085 0.015560953
0.018913209 0.02249377 0.015228395
0.020680718 0.02245437 0.014966737
0.022385141 0.022400066 0.014660626
0.02395157 0.021942677 0.014502894
-0.032723017 0.023662759 0.015585318
-0.031565413 0.024446204 0.015211631
-0.030419644 0.025022572 0.014561858
0.015663829 0.024163529 0.015733115
0.016989453 0.024418693 0.01526382
0.018853575 0.024312383 0.014959577
0.020736575 0.024283748 0.014610711
0.021991353 0.023696529 0.014468235
-0.030864656 0.025469873 0.015772272
-0.029740499 0.025950462 0.015272815
-0.028230971 0.026682971 0.015072098
0.01601891 0.025544226 0.015995547
0.017170709 0.026026104 0.015203528
0.018824264 0.026059883 0.014671724
0.020266205 0.025638793 0.014504589
-0.028880998 0.027082499 0.016104002
-0.02763419 0.027326964 0.01547594
-0.026380459 0.028184358 0.015313255
0.017618064 0.027586559 0.015761156
0.018839411 0.027997166 0.014980478
0.019924114 0.02872289 0.01455411
-0.025516009 0.029085055 0.015500952
-0.024311006 0.029759942 0.015295788
-0.023020875 0.030315861 0.015072272
0.019136015 0.029754624 0.015591251
0.020178493 0.029708494 0.014729699
-0.022214614 0.031090992 0.015601709
-0.02086217 0.031679742 0.015268779
-0.019469535 0.032097101 0.014719169
0.017885001 0.032320499 0.016170001
0.01918298 0.031475268 0.015702493
0.020408476 0.031522144 0.01488405
-0.020210693 0.032693144 0.015882738
-0.018849473 0.033230279 0.015527896
-0.017361235 0.033822425 0.015036986
0.015798898 0.034091 0.016113902
0.017174423 0.033660274 0.015742013
0.018851835 0.033039756 0.015073927
0.020156428 0.03258919 0.014674143
-0.016724234 0.034452178 0.015535291
-0.015248075 0.035171188 0.015198949
-0.014148582 0.0358354 0.015188735
0.012311552 0.03577321 0.01595307
0.013436844 0.035768248 0.015866818
0.015451291 0.035198741 0.01555244
0.01683607 0.034977693 0.01493377
0.0182105 0.034258001 0.0144185
-0.013375665 0.036427069 0.015379819
-0.011777983 0.037445012 0.015337459
0.011977016 0.037010584 0.015463685
0.013508607 0.03662727 0.015059175
0.015064499 0.03640708 0.014845954
0.016267249 0.036139499 0.014447499
-0.010983292 0.037922334 0.015443362
-0.0098759755 0.038637452 0.015417543
-0.0087828962 0.039422214 0.015206231
0.010425214 0.038950983 0.015861405
0.01148898 0.038503155 0.014965751
0.012695 0.037928 0.014479
-0.0079298662 0.040072728 0.01539373
-0.0061863014 0.040648058 0.015269554
-0.0047454084 0.041003559 0.01509623
-0.0027128246 0.041130345 0.014891751
-0.0010323953 0.041156631 0.014736022
0.00076814281 0.04128433 0.01461081
0.0028495223 0.041314431 0.014542523
0.0038029999 0.041350666 0.014456667
0.0085047586 0.041127216 0.015426907
0.0098565258 0.040520445 0.015292522
0.010970188 0.039979499 0.014603876
-0.0040803007 0.041567929 0.01585705
-0.0027754223 0.041674901 0.015809665
-0.00092788949 0.041891046 0.015738439
0.0010836101 0.041971304 0.015463822
0.002794347 0.041963842 0.015457704
0.0045789867 0.042080034 0.015341417
0.0064918729 0.042257719 0.015279131
0.0076854588 0.041738614 0.015094781
0.0091296677 0.041412335 0.014522335
-0.029239001 -0.023480538 0.016275691
-0.028012201 -0.023429399 0.016229799
-0.030900374 -0.021969194 0.016597858
-0.02970195 -0.022521498 0.016887734
-0.027917694 -0.022522472 0.016832052
-0.026230007 -0.022139216 0.016655928
-0.024821065 -0.021916334 0.016386734
-0.031262379 -0.020625509 0.017038738
-0.029895233 -0.021242714 0.017806338
-0.027867181 -0.021157147 0.017702654
-0.026172556 -0.02101453 0.017498262
-0.024284184 -0.020667417 0.017017119
-0.022711806 -0.020292465 0.016507983
-0.021508001 -0.019908 0.016253
-0.032562155 -0.018267563 0.01675795
-0.031951465 -0.018748138 0.017515423
-0.024023466 -0.019462386 0.017762691
-0.022382449 -0.019009899 0.017222783
-0.020988777 -0.018819137 0.016603693
-0.019592669 -0.018171666 0.016264003
-0.033092804 -0.017131571 0.01718617
-0.031631388 -0.016949655 0.017654665
-0.029642202 -0.016707679 0.017752592
-0.028458878 -0.01657716 0.01795236
-0.021913571 -0.017535714 0.017853715
-0.020668559 -0.017121388 0.017409964
-0.019084856 -0.016906571 0.016700525
-0.0178605 -0.016484499 0.0163045
-0.034385845 -0.014816464 0.016564025
-0.033486109 -0.015347581 0.016778409
-0.031459209 -0.01535433 0.017102906
-0.029763723 -0.01544155 0.017613262
-0.027927179 -0.015351193 0.017781151
-0.026491182 -0.015100935 0.017924597
-0.024464749 -0.01447925 0.01798575
-0.020256886 -0.015915176 0.017859355
-0.018820016 -0.015380933 0.017387357
-0.017199866 -0.015173729 0.016651971
-0.015884573 -0.014604572 0.016324572
-0.034632411 -0.013506736 0.016603075
-0.033384327 -0.013606995 0.01682377
-0.03160907 -0.013609509 0.017153867
-0.029648138 -0.013554384 0.017355777
-0.027894359 -0.013556558 0.017500291
-0.026165916 -0.01349904 0.017813092
-0.024489377 -0.013419764 0.017934093
-0.018280927 -0.013968517 0.017826816
-0.017152077 -0.013500382 0.017539179
-0.015406712 -0.013435015 0.016731422
-0.014075238 -0.012960428 0.016344903
-0.036119998 -0.011085876 0.016358815
-0.035102788 -0.011677783 0.016572155
-0.033416703 -0.011726775 0.016820058
-0.031553008 -0.011769735 0.016921882
-0.029778808 -0.011733225 0.016970087
-0.027942758 -0.011649105 0.017157489
-0.02610587 -0.01154667 0.017430054
-0.0242691 -0.01161704 0.017678939
-0.022966925 -0.011356276 0.017873148
-0.020529907 -0.011118476 0.017888272
-0.01926898 -0.011232308 0.017878348
-0.016525449 -0.012196138 0.017889656
-0.015241482 -0.011771513 0.017548544
-0.013620644 -0.011671672 0.016734965
-0.012238637 -0.011177273 0.016389364
-0.036497969 -0.009676463 0.016577866
-0.035118613 -0.010051814 0.016718604
-0.033436641 -0.0099742766 0.016703511
-0.031480156 -0.0098309834 0.016669739
-0.029772624 -0.0098978719 0.016714429
-0.027773166 -0.0099778194 0.016886408
-0.026294336 -0.0099400021 0.017111178
-0.024337616 -0.0098221991 0.017342193
-0.022354733 -0.0099535398 0.01772245
-0.020702839 -0.0098787118 0.017821534
-0.018949533 -0.0098949242 0.017843315
-0.01459375 -0.010575751 0.017912833
-0.013422108 -0.010032451 0.017575301
-0.011655455 -0.00987304 0.016754348
-0.010391821 -0.0094085364 0.016426856
-0.038153771 -0.0078357989 0.016471874
-0.037069589 -0.008318671 0.016692061
-0.034931626 -0.0081337485 0.0166185
-0.033415914 -0.0081542516 0.016511198
-0.031435642 -0.0081271213 0.016553933
-0.02975475 -0.0080984719 0.016561059
-0.027902853 -0.0081445063 0.016609853
-0.026185729 -0.0081623532 0.016688554
-0.024323458 -0.0082700513 0.017020948
-0.022397038 -0.0082493871 0.017365761
-0.020632097 -0.008233767 0.017711634
-0.018985195 -0.0081320852 0.017892404
-0.017645689 -0.0077975625 0.01797625
-0.012792001 -0.0087752501 0.017914001
-0.011595556 -0.0082309833 0.017595433
-0.0098967655 -0.0081485352 0.016945193
-0.0083766077 -0.0077578835 0.016497156
-0.0071870005 -0.007272 0.016202001
-0.039809056 -0.0056146323 0.016411843
-0.03880747 -0.0063354876 0.016630018
-0.036884587 -0.0063047465 0.0166991
-0.03510914 -0.0062444303 0.01660558
-0.033249531 -0.0062105344 0.016610419
-0.031568378 -0.0062848385 0.016602566
-0.029712772 -0.0063867536 0.016531516
-0.027905863 -0.0064743622 0.016538758
-0.026151611 -0.0063186879 0.016591428
-0.024449555 -0.0062684799 0.016737361
-0.022488169 -0.0062978505 0.017021848
-0.020746166 -0.0062198294 0.017317424
-0.018957341 -0.0061984598 0.017720325
-0.017183509 -0.0060639582 0.01785659
-0.0153865 -0.0059816837 0.017938871
-0.014236 -0.0054540001 0.017958
-0.010974145 -0.0070574293 0.017925287
-0.009773612 -0.0065647555 0.01771058
-0.0080214767 -0.0063202973 0.017095761
-0.0064394469 -0.0060674138 0.01657228
-0.0053502498 -0.0055219997 0.016249251
-0.040307511 -0.0043679378 0.016540509
-0.038880862 -0.0045189639 0.016735993
-0.036982898 -0.0045484495 0.016683491
-0.034929343 -0.0045080581 0.0166927
-0.03331247 -0.0045128283 0.016556647
-0.03165672 -0.0045461687 0.01652435
-0.029618133 -0.0044393581 0.016559534
-0.027845461 -0.0042691645 0.0165604
-0.026208904 -0.0044135763 0.016467877
-0.024319427 -0.0044002817 0.016574845
-0.022464173 -0.0043754722 0.016811037
-0.020806039 -0.0044432902 0.016945582
-0.018995695 -0.004534719 0.017502824
-0.01719011 -0.0044351821 0.017719168
-0.015360448 -0.0043958994 0.01781816
-0.0136294 -0.0044371635 0.017891437
-0.0121499 -0.0038587002 0.0179656
-0.0076918653 -0.0048076436 0.0177278
-0.0061689164 -0.0045776749 0.017213304
-0.0047358195 -0.004336481 0.016629929
-0.0034980008 -0.003639 0.016344
-0.041823465 -0.0024731827 0.016362298
-0.040689167 -0.0028757856 0.016570272
-0.038696516 -0.0027100975 0.016658207
-0.036925487 -0.0026545075 0.016698955
-0.03512457 -0.0027533926 0.016591379
-0.033396166 -0.0032576192 0.016298262
-0.031391941 -0.0030112574 0.016326072
-0.029517606 -0.0027406593 0.016418353
-0.028064586 -0.0029716338 0.016403342
-0.026181584 -0.0033673334 0.016243499
-0.024056928 -0.0026455254 0.016356142
-0.022462366 -0.0026622941 0.016467491
-0.020836839 -0.0027139201 0.016547741
-0.018911362 -0.0026785892 0.016988054
-0.017149493 -0.002706866 0.01743637
-0.01531617 -0.0026590433 0.017626854
-0.013566463 -0.0026913143 0.017790936
-0.01167852 -0.0026887532 0.017872209
-0.010315333 -0.0023393703 0.017915739
-0.0058650612 -0.00309652 0.017769542
-0.0045571839 -0.0028149083 0.017341986
-0.0027798938 -0.0024939242 0.016579211
-0.0016895001 -0.0018770001 0.0162795
-0.043294471 -0.00024642108 0.016254159
-0.042387597 -0.00086328882 0.016386194
-0.040557887 -0.00078257464 0.016435148
-0.038670328 -0.00077591074 0.016466534
-0.036861762 -0.0008488571 0.016499752
-0.035473075 -0.0012855952 0.016348308
-0.02952875 -0.00173125 0.016207499
-0.024204999 -0.00173 0.016201001
-0.021919677 -0.0014020801 0.01627814
-0.02122659 -0.0013795918 0.016252408
-0.018644786 -0.0012478236 0.016424706
-0.017018912 -0.00090555305 0.016804401
-0.0153384 -0.0009089369 0.017166417
-0.013561653 -0.00087005628 0.017496079
-0.011760613 -0.00086027273 0.017662693
-0.009677954 -0.00083376374 0.017783413
-0.0085279783 -0.00054553058 0.017905187
-0.0040873061 -0.0013083337 0.01777661
-0.0025836439 -0.0009018667 0.01725328
-0.001068045 -0.00066399999 0.016555965
-0.043263834 0.00016533342 0.016257001
-0.042468905 0.00085908157 0.01633526
-0.040672597 0.00057278684 0.016286917
-0.038552765 0.00035216214 0.016272567
-0.037161708 0.00033225 0.016288355
-0.01676311 0.00033840738 0.016366592
-0.015302217 0.00072611758 0.016628677
-0.013445074 0.00087672734 0.01704842
-0.011644977 0.00091226713 0.017434202
-0.0098387161 0.00084183179 0.017658938
-0.0081596598 0.00089792098 0.017760465
-0.0066835317 0.0013290314 0.017867625
-0.0023186426 0.0006018572 0.01779025
-0.00085652282 0.00078675564 0.017132679
0.00063047535 0.0010173279 0.016451772
-0.014788501 0.0020381669 0.016282
-0.013451439 0.0024650483 0.016513534
-0.011550661 0.0026065295 0.016996082
-0.010088041 0.0027254443 0.017259616
-0.0079777334 0.0027589595 0.017455895
-0.0062709847 0.0028477504 0.017647985
-0.0051400573 0.0029202567 0.017884085
-0.00046913658 0.0025111362 0.017709203
0.00094833394 0.0026008557 0.017004544
0.0023078511 0.0027805665 0.016403286
-0.012796501 0.0038349999 0.016273251
-0.011461001 0.0044195424 0.016466085
-0.010071135 0.0044511864 0.016799584
-0.0079238722 0.0044628237 0.017162427
-0.0063275788 0.0044520553 0.017639779
-0.0053126249 0.0040762499 0.017972499
0.0010758369 0.0043227347 0.017707609
0.0027827697 0.0045039365 0.016940929
0.0043499279 0.0048767948 0.016515203
0.0055427994 0.0052216002 0.016273201
-0.010996293 0.0058479407 0.016250355
-0.0098996069 0.0062916433 0.016425224
-0.0079495246 0.0063724588 0.016843393
-0.006416609 0.006296563 0.017634947
0.0017143334 0.0054853335 0.017940668
