# .PCD v0.7 - Point Cloud Data file format
VERSION 0.7
FIELDS x y z
SIZE 4 4 4
TYPE F F F
COUNT 1 1 1
WIDTH 1258
HEIGHT 1
VIEWPOINT 0 0 0 1 0 0 0
POINTS 1258
DATA ascii
0.032406002 0.0072559998 -0.019955998
-0.020395959 0.0098658716 -0.020148307
-0.018837439 0.0099210422 -0.020863984
-0.017162589 0.0099550541 -0.021234868
-0.015380178 0.010077033 -0.021432042
-0.01422107 0.010051287 -0.02158043
-0.0057366714 0.0099703157 -0.021371191
-0.0044667586 0.0097945584 -0.020580987
-0.0026984117 0.0098400889 -0.0204145
-0.00085783453 0.0098504908 -0.020629754
0.00081804785 0.0098702256 -0.020867864
0.0027581814 0.0099119097 -0.020578157
0.0045265248 0.0099723684 -0.020242989
0.0062113344 0.0099067343 -0.01997439
0.0074643749 0.0105505 -0.019836873
0.0196498 0.0097311344 -0.019840933
0.020685682 0.009880404 -0.020058753
0.02271683 0.010035743 -0.020548746
0.02416463 0.0097941058 -0.020688308
0.026059939 0.0098740645 -0.020595625
0.028076304 0.0099540381 -0.020743174
0.029636685 0.0097834533 -0.020754507
0.030887362 0.0094882054 -0.020234069
-0.020472957 0.01178281 -0.020256974
-0.018938556 0.011644636 -0.020685479
-0.017032113 0.011834174 -0.020955974
-0.015276059 0.01176157 -0.02125467
-0.014193051 0.011888742 -0.021490773
-0.012076835 0.012386667 -0.021522054
-0.0075403419 0.012149501 -0.021275869
-0.0063036773 0.011728629 -0.020889986
-0.0045658848 0.011608439 -0.020422522
-0.0026377817 0.011569511 -0.020543423
-0.00080891233 0.011578911 -0.020600386
0.00085430231 0.011684868 -0.02077768
0.0028050574 0.011621243 -0.020632932
0.0044677844 0.011671921 -0.020397369
0.0061748228 0.011657929 -0.020155922
0.0076451995 0.011772 -0.01988152
0.019379983 0.011938252 -0.019848481
0.020703293 0.011731652 -0.020032985
0.02264132 0.011739596 -0.020335022
0.024157602 0.011708698 -0.020194495
0.026102236 0.011674241 -0.020173972
0.02809041 0.011632612 -0.020121962
0.029324615 0.01098658 -0.019906385
-0.021979177 0.013762297 -0.020093255
-0.020571826 0.013520392 -0.020798143
-0.018918402 0.013488643 -0.02126528
-0.017042836 0.013443943 -0.020984469
-0.015242185 0.013463928 -0.021097269
-0.013500877 0.013527576 -0.021229373
-0.011794868 0.013470162 -0.02128133
-0.0099552721 0.013674779 -0.021440042
-0.008103705 0.013565933 -0.020936057
-0.0064341077 0.013381698 -0.02059076
-0.0045103943 0.013522072 -0.020702958
-0.0027071834 0.013444584 -0.020750167
-0.00084171444 0.013491558 -0.020821858
0.0010340434 0.013507929 -0.020890877
0.0026926028 0.01343435 -0.02078712
0.0045953072 0.013484907 -0.020548705
0.0062003192 0.013583486 -0.020280622
0.0078923879 0.013495324 -0.019932572
0.0211065 0.012710501 -0.019858502
0.022795787 0.013080875 -0.019962056
0.024077265 0.013120766 -0.019908546
0.026270652 0.01310385 -0.019938702
0.027570946 0.012971984 -0.019944329
-0.021886913 0.015065612 -0.020062927
-0.020705303 0.015469085 -0.020483801
-0.018974097 0.015460417 -0.021116761
-0.017169273 0.015228964 -0.021174153
-0.015317375 0.015364728 -0.021247257
-0.013620366 0.015113407 -0.021371536
-0.011613837 0.014926356 -0.021238444
-0.0098805875 0.015337032 -0.021280214
-0.0083551938 0.015239243 -0.020924322
-0.0061823837 0.015256403 -0.021007633
-0.0045552305 0.015359729 -0.021095136
-0.0028070523 0.015371159 -0.021078391
-0.00092815055 0.015360179 -0.021044651
0.0010146437 0.015313137 -0.021090044
0.0026813226 0.015365802 -0.021038232
0.0045314715 0.015404001 -0.02073293
0.0063153678 0.015356144 -0.020314146
0.0081125908 0.015575983 -0.019963494
0.0091080014 0.015194002 -0.019808
-0.021761037 0.016779557 -0.019918628
-0.020578755 0.017151972 -0.020335665
-0.018899683 0.017099308 -0.020962719
-0.017153874 0.017093658 -0.021327598
-0.015257572 0.017036822 -0.021439305
-0.013832386 0.017158166 -0.021512097
-0.011368396 0.017529642 -0.021498168
-0.0098212557 0.017190017 -0.021301277
-0.0083256038 0.017006652 -0.021346683
-0.0062946002 0.016782776 -0.021426499
-0.0043978849 0.016817348 -0.021461772
-0.0027371731 0.016885139 -0.021411471
-0.00091403094 0.01711997 -0.021360463
0.00098024076 0.017048458 -0.021304445
0.0027113066 0.017099472 -0.021197198
0.004518013 0.017133689 -0.020846004
0.0062546972 0.016970003 -0.020346185
0.0078571169 0.016899437 -0.019937139
-0.020056494 0.018704783 -0.020024072
-0.018974179 0.018831393 -0.020816736
-0.017587265 0.018905392 -0.021478575
-0.015398236 0.019208293 -0.021563759
-0.013726823 0.018369647 -0.021581763
-0.011231476 0.01822469 -0.0214931
-0.010021001 0.018224541 -0.021398723
-0.0087608993 0.018225702 -0.021526601
-0.0042309538 0.018724114 -0.021495918
-0.002683016 0.018990466 -0.021406926
-0.0011516842 0.019132311 -0.021504454
0.001233483 0.018843135 -0.021538639
0.002724427 0.019002248 -0.021294741
0.0044617099 0.018955931 -0.020909591
0.0063860109 0.019012822 -0.020313481
0.007652692 0.018970521 -0.019961495
-0.021687001 0.021269802 -0.019861402
-0.020459864 0.020931199 -0.020156981
-0.018911818 0.020753713 -0.020939279
-0.017718002 0.020394156 -0.021510845
-0.015757 0.019819999 -0.021590501
-0.0038405999 0.0201317 -0.0215376
-0.0027095091 0.020299869 -0.021514056
-0.00069359457 0.021030052 -0.021419706
0.0008329894 0.020892033 -0.02120663
0.0026652075 0.020636447 -0.02065278
0.0044929776 0.020603467 -0.020325601
0.0060750125 0.020285107 -0.020068103
0.0073276665 0.019923668 -0.019863999
-0.023675626 0.023175625 -0.019859124
-0.022290684 0.022802832 -0.01995185
-0.02075378 0.022397611 -0.020306505
-0.018859308 0.022733817 -0.021122323
-0.017049745 0.023190863 -0.020916302
-0.015281714 0.023266582 -0.020818599
-0.013428339 0.02319058 -0.021466551
-0.011758657 0.02302907 -0.021369176
-0.0098989094 0.023134058 -0.021389106
-0.0082048923 0.023212729 -0.021423701
-0.0060889376 0.023168102 -0.021385439
-0.0042427783 0.022888279 -0.021119656
-0.0027153639 0.022548759 -0.020792693
-0.00091191591 0.02221675 -0.020687684
0.00054608937 0.021929216 -0.020254089
0.0019640001 0.021619 -0.0199035
-0.024059251 0.0243719 -0.019981435
-0.0225088 0.024384543 -0.020295875
-0.020634862 0.02440754 -0.020738812
-0.019106405 0.024034984 -0.020512575
-0.017163653 0.023483872 -0.019987181
-0.015012335 0.023458123 -0.020170875
-0.01345575 0.02367829 -0.020745235
-0.011746641 0.023915939 -0.020531014
-0.0099530369 0.023876483 -0.020617073
-0.008112831 0.023826197 -0.020608652
-0.0063621863 0.023690628 -0.020531029
-0.0046143378 0.023539763 -0.020261925
-0.023765724 0.025836647 -0.019968525
-0.022462409 0.025748258 -0.020257249
-0.020714097 0.025628893 -0.020343129
-0.019713501 0.025257749 -0.020016251
0.0066206162 -0.037906617 -0.018242383
0.0082556931 -0.038042203 -0.018604411
0.009875739 -0.038211185 -0.018830828
0.011825047 -0.038367897 -0.018929025
0.013367344 -0.038646676 -0.018953208
0.015265591 -0.038791582 -0.018960848
0.017005824 -0.038358342 -0.018795315
0.018191999 -0.037934337 -0.018376501
-0.00067600003 -0.03611023 -0.018356591
0.0010074421 -0.036267448 -0.018697638
0.0027779553 -0.036528118 -0.018982999
0.0044703889 -0.036928125 -0.018976571
0.0061574136 -0.037252888 -0.019084008
0.0079751266 -0.037507467 -0.019355688
0.0094102863 -0.037656859 -0.019680286
0.017578699 -0.037405375 -0.019476702
0.019056387 -0.036933433 -0.018851018
0.020295314 -0.036324538 -0.018447319
-0.0073206667 -0.034257665 -0.018223001
-0.0061384216 -0.034594741 -0.018561196
-0.0044607813 -0.035074253 -0.018836979
-0.0026881073 -0.035396867 -0.018961864
-0.00095872831 -0.03563809 -0.019122148
0.00082748936 -0.035768531 -0.019496275
0.00213225 -0.03596225 -0.019719249
0.019584499 -0.035808459 -0.019558499
0.020759525 -0.035177652 -0.019077729
0.022025581 -0.034688771 -0.018371027
-0.0092242006 -0.032623801 -0.018203301
-0.0079950793 -0.033196472 -0.018901367
-0.0064797821 -0.033828888 -0.019345123
-0.0053210002 -0.034169 -0.019666998
0.021369267 -0.033855356 -0.019478938
0.022561131 -0.033213295 -0.01880881
0.023513913 -0.032536872 -0.018252086
-0.011003749 -0.030735001 -0.018164938
-0.009815746 -0.031218709 -0.018723218
-0.0086006997 -0.031791873 -0.019417251
0.02307627 -0.031776525 -0.019400466
0.023871882 -0.031641793 -0.018900454
-0.011249594 -0.029644728 -0.018553002
-0.010156971 -0.029881489 -0.019417789
0.023150546 -0.030241881 -0.01957104
0.024425104 -0.029857159 -0.018993411
0.025604593 -0.029512152 -0.018404303
-0.0127045 -0.027056498 -0.018049
-0.011535975 -0.02780609 -0.018732414
-0.010677487 -0.027945345 -0.01958834
0.024922736 -0.02850439 -0.019585609
0.026246035 -0.028155075 -0.019199338
0.027649678 -0.027540604 -0.018582545
-0.013175094 -0.025905099 -0.018274089
-0.011637447 -0.026071774 -0.018947303
-0.010751857 -0.026391858 -0.019738285
0.028130811 -0.026303576 -0.019270658
0.02962199 -0.025907027 -0.018635357
0.030733 -0.025495667 -0.018130666
-0.013637605 -0.024235552 -0.018612139
-0.011778905 -0.02449863 -0.019294055
-0.010775667 -0.024597999 -0.019780999
0.028759001 -0.025038 -0.019798001
0.030085713 -0.024389222 -0.019335221
0.031067412 -0.024028622 -0.018557968
-0.013666846 -0.022509348 -0.018976988
0.030452749 -0.023146752 -0.019727001
0.031612433 -0.02266334 -0.019056579
0.033159312 -0.022172689 -0.018341077
0.034943178 -0.021788502 -0.018129036
0.036531702 -0.021731 -0.0180487
-0.016388223 -0.020101555 -0.018019112
-0.015147441 -0.020315396 -0.018101381
-0.013500256 -0.020782381 -0.018977704
0.032084413 -0.021091379 -0.019598447
0.03330259 -0.020547049 -0.01910208
0.035073612 -0.020869868 -0.01867477
0.036905885 -0.020661719 -0.018571222
0.038731538 -0.020607276 -0.018501841
0.040584967 -0.020370755 -0.018453488
0.042042319 -0.020407626 -0.018202409
-0.016470574 -0.019231763 -0.018033903
-0.015363832 -0.018984286 -0.018253651
-0.013527516 -0.019066628 -0.019278772
0.033084556 -0.019491553 -0.019645145
0.035311565 -0.019351751 -0.019550625
0.036816198 -0.0191494 -0.019485112
0.03867187 -0.019169347 -0.01942447
0.040459171 -0.018978752 -0.019355629
0.042355917 -0.01880886 -0.018777244
0.043437067 -0.018385332 -0.018219002
-0.023775302 -0.016404001 -0.0180688
-0.022286514 -0.016779719 -0.018217485
-0.020758547 -0.016784068 -0.0183038
-0.018915705 -0.016651306 -0.018236844
-0.016778747 -0.01673531 -0.018344073
-0.01536897 -0.01715854 -0.01911482
-0.014276667 -0.017875666 -0.019667333
0.041374002 -0.017864 -0.019753
0.042508617 -0.0172321 -0.019234752
0.043524653 -0.017133418 -0.018412143
-0.025714125 -0.014685438 -0.018118998
-0.024249079 -0.015161676 -0.018392988
-0.022586426 -0.015322411 -0.018806549
-0.020712866 -0.015302771 -0.018935552
-0.018889962 -0.015316959 -0.018625125
-0.017115593 -0.015345907 -0.018521231
-0.0159445 -0.015486547 -0.019480823
0.04275224 -0.015268689 -0.019345881
0.043596588 -0.01530449 -0.01846966
-0.027189337 -0.013086333 -0.018146778
-0.026079914 -0.013477131 -0.018326938
-0.024247698 -0.013579912 -0.018817369
-0.022413032 -0.013459425 -0.019458678
-0.020798929 -0.013595978 -0.019317808
-0.018912546 -0.01354241 -0.018841021
-0.017109757 -0.013482546 -0.018644057
-0.016077468 -0.013540932 -0.019674134
0.043001167 -0.013430953 -0.019399527
0.043425165 -0.013469908 -0.018403707
-0.028815001 -0.011085998 -0.018035
-0.027806433 -0.011688869 -0.018210227
-0.026061831 -0.011706623 -0.018569637
-0.024261201 -0.011611222 -0.019185822
-0.022390096 -0.011678989 -0.019661264
-0.020669242 -0.011635906 -0.019302316
-0.018880541 -0.011666917 -0.018952604
-0.017069759 -0.011619415 -0.018761961
-0.016080251 -0.011561314 -0.019674936
0.042697955 -0.011693286 -0.018856069
0.043302268 -0.012454667 -0.018177802
-0.029210394 -0.0097084632 -0.018147755
-0.027955316 -0.0099410657 -0.018423818
-0.026114598 -0.0098904632 -0.018821327
-0.024188809 -0.009946391 -0.019437687
-0.022495762 -0.009936898 -0.019600876
-0.020681491 -0.010043662 -0.019388655
-0.018918591 -0.009816247 -0.018791977
-0.01708681 -0.0099625625 -0.018811392
-0.015977213 -0.009669546 -0.019538395
0.041101735 -0.0093274238 -0.018936003
0.041806646 -0.010244013 -0.018888107
-0.029507358 -0.0081521971 -0.018174162
-0.027965294 -0.0080664745 -0.018662203
-0.026061144 -0.0080632363 -0.01924058
-0.024228692 -0.0081029795 -0.019713094
-0.022425488 -0.0081047788 -0.019618465
-0.020660806 -0.0079378812 -0.019078087
-0.018950718 -0.0080189155 -0.018782742
-0.017162114 -0.0081213908 -0.019216809
-0.015706418 -0.0081603248 -0.019628521
0.040403362 -0.0080015799 -0.019031724
-0.029532641 -0.0062933452 -0.018189022
-0.027907016 -0.0062859366 -0.018745989
-0.026138082 -0.0061988975 -0.019284735
-0.024305487 -0.0063300682 -0.01968554
-0.022513365 -0.0061699795 -0.019729465
-0.020673705 -0.006428964 -0.019208882
-0.018910568 -0.0062940302 -0.018709218
-0.017209737 -0.0062935003 -0.019162497
-0.016038209 -0.0063349186 -0.019712584
0.039322361 -0.0060558952 -0.018848026
0.039747272 -0.0069809007 -0.018815156
-0.029217182 -0.0045835902 -0.018159332
-0.027900554 -0.004540192 -0.018613312
-0.026020614 -0.0045626224 -0.019108314
-0.02432517 -0.0045749131 -0.019418161
-0.022851611 -0.0046906993 -0.019668434
-0.020541467 -0.0046224496 -0.019616
-0.018793924 -0.0045504244 -0.019149024
-0.017141024 -0.0045216144 -0.019223057
-0.016018869 -0.004357968 -0.019694483
0.038593173 -0.0044006952 -0.018896701
-0.028959736 -0.0029475999 -0.018045133
-0.027960796 -0.0027196801 -0.018420679
-0.025984932 -0.0027455527 -0.018980714
-0.024297191 -0.0026895071 -0.019429583
-0.02308397 -0.0027887672 -0.019723265
-0.020120109 -0.0032338577 -0.019691179
-0.018830698 -0.0029342927 -0.019607877
-0.017228937 -0.0030518519 -0.019636871
-0.016027145 -0.003424 -0.019741429
0.038420103 -0.0027778698 -0.018885186
-0.027723422 -0.00091843039 -0.01836155
-0.026206242 -0.00087608432 -0.01889878
-0.024281846 -0.00089401216 -0.019532062
-0.023283402 -0.0013628002 -0.019771
0.037549391 -0.00053214736 -0.019053845
0.037994467 -0.0013993926 -0.018876657
-0.027522512 0.00081044709 -0.018224001
-0.026085394 0.00083198788 -0.018875863
-0.02447488 0.00088601763 -0.019532498
0.036821868 0.0008852153 -0.018955389
-0.027254436 0.0024773045 -0.018136131
-0.026118986 0.0026771326 -0.018658448
-0.024445349 0.0027942937 -0.019458452
0.034168001 0.0035257002 -0.0192769
0.034932457 0.0029607213 -0.018993516
0.036111478 0.0018874739 -0.019088104
-0.027057001 0.0036370007 -0.018007001
-0.025908994 0.0046329987 -0.018370565
-0.024393141 0.0046811434 -0.019146644
-0.02304586 0.0050691431 -0.019687144
0.011989919 0.00521428 -0.019759238
0.0132596 0.0052131 -0.0197591
0.0147635 0.0052236663 -0.019787667
0.033794146 0.0043103285 -0.018906455
0.03448227 0.0037473175 -0.018294139
-0.025605587 0.0060089179 -0.018113466
-0.024336495 0.0062090592 -0.018597683
-0.022836104 0.0063410993 -0.019472161
0.0103005 0.0069258334 -0.019768834
0.011709271 0.0062886891 -0.019680541
0.013525321 0.006218743 -0.019617349
0.015286612 0.0063428418 -0.019641377
0.016983584 0.0066070487 -0.019706611
0.018298 0.0071604992 -0.0197945
0.033279184 0.0060861255 -0.019013001
-0.023820642 0.0080869272 -0.018260915
-0.022603143 0.008094443 -0.019087216
-0.021436274 0.0086110011 -0.01968009
0.0071452502 0.0087812506 -0.019788498
0.0080688922 0.0087473216 -0.019778039
0.0099819861 0.0081477258 -0.019704215
0.011769666 0.0080982791 -0.019527843
0.01355377 0.0080842031 -0.019462775
0.015293666 0.0081160422 -0.019395106
0.017054314 0.0080622723 -0.019538123
0.018436756 0.0082274396 -0.01972476
0.03213622 0.0083175264 -0.019113071
0.032642521 0.0075899116 -0.018806593
-0.023702284 0.0097409496 -0.018174438
-0.022528144 0.0098329298 -0.018788029
-0.021208681 0.0099390252 -0.019595049
0.0071048341 0.0091866674 -0.019780334
0.0082632462 0.009787065 -0.019741671
0.0098337624 0.0099254549 -0.019641886
0.011706357 0.0098184077 -0.01946873
0.013417187 0.0098251356 -0.019411389
0.015293978 0.0098681245 -0.019360263
0.017162066 0.0099374596 -0.019468967
0.018699395 0.010012582 -0.019700114
0.030323552 0.010702999 -0.019595221
0.031297438 0.009913248 -0.0188886
-0.023821773 0.011855941 -0.018314304
-0.022505693 0.011738064 -0.019013023
-0.021290403 0.011407767 -0.019619931
0.0085883262 0.011609775 -0.019731453
0.0098678488 0.011728938 -0.019628555
0.01158143 0.011721355 -0.019493064
0.013503294 0.011660103 -0.019423224
0.015361593 0.011705708 -0.019400407
0.017187195 0.011728839 -0.019557295
0.018545112 0.011777376 -0.019725889
0.028712202 0.0123588 -0.0196926
0.029670864 0.011697784 -0.019148661
0.030659623 0.010905501 -0.018262375
-0.023960773 0.013505819 -0.018458666
-0.022812013 0.013424872 -0.01938846
0.0087930588 0.013351413 -0.019761175
0.0098486179 0.013532036 -0.019645466
0.011511183 0.013364224 -0.019522492
0.013570509 0.013522924 -0.01944223
0.01537565 0.013552601 -0.019460749
0.017272668 0.013546887 -0.019489037
0.018731648 0.013348569 -0.019518286
0.020713083 0.013615099 -0.019533521
0.022457058 0.013899863 -0.01963244
0.024321269 0.013950273 -0.019666299
0.026185319 0.013944538 -0.019531779
0.028056812 0.013565794 -0.01905066
0.028998321 0.012839146 -0.018549351
-0.024063122 0.015382887 -0.018478774
-0.02265105 0.015358836 -0.019461099
0.0089959996 0.016140001 -0.019794999
0.0099089351 0.015403965 -0.019691626
0.011624093 0.015264696 -0.019567762
0.013477606 0.015443807 -0.019490147
0.015470614 0.01535767 -0.0193827
0.016980814 0.015276705 -0.019170683
0.018948216 0.015386863 -0.019036146
0.020678442 0.015381321 -0.018922605
0.02245337 0.015351449 -0.018878967
0.024383044 0.015310595 -0.018912593
0.026158394 0.015257468 -0.01866561
0.027323954 0.014735409 -0.018402116
-0.023968838 0.017271034 -0.018329753
-0.022660218 0.017537177 -0.018922614
-0.02126025 0.017682431 -0.019583207
0.0086370921 0.017147293 -0.019674968
0.0098838098 0.017103599 -0.019514471
0.011741133 0.017269272 -0.019446563
0.013459923 0.017173883 -0.019281793
0.015263896 0.017088668 -0.019061424
0.017041748 0.01714859 -0.018845906
0.01885484 0.017102137 -0.018493265
0.020544523 0.016716274 -0.01830321
0.022370942 0.016479429 -0.018204512
0.024167115 0.016413657 -0.018138116
0.025323499 0.01626 -0.018043999
-0.030701501 0.019507501 -0.018065669
-0.0296317 0.019378601 -0.018153861
-0.027835408 0.019445824 -0.018249771
-0.026350455 0.019513052 -0.018194702
-0.023592127 0.01963464 -0.018123388
-0.022630995 0.018613357 -0.018658161
-0.020934802 0.018824473 -0.019482778
0.0085296761 0.019129418 -0.019572161
0.0099283447 0.018954122 -0.019196862
0.01167883 0.019009426 -0.019154293
0.013518464 0.018926887 -0.018755227
0.015263188 0.018763566 -0.018451912
0.016901731 0.01853931 -0.018327368
0.018183997 0.0182219 -0.0180996
-0.031158349 0.020814648 -0.018242648
-0.029596651 0.020680163 -0.01841718
-0.027938569 0.020786662 -0.018709263
-0.026006978 0.020656785 -0.018757913
-0.024281507 0.020396726 -0.018526254
-0.022582494 0.020563211 -0.019244822
-0.020864863 0.020123316 -0.019549139
0.0033141433 0.021576857 -0.019742288
0.0046666949 0.021242479 -0.019060042
0.0062663509 0.020911304 -0.018993737
0.0081273355 0.020310769 -0.018853866
0.0099319872 0.020152163 -0.018549852
0.011579633 0.019977041 -0.018368708
0.01303064 0.019968923 -0.018175881
-0.031269327 0.022375258 -0.018292531
-0.029569063 0.022513881 -0.01871272
-0.028043721 0.022413105 -0.018949497
-0.026138172 0.022460526 -0.019475864
-0.024351289 0.022428719 -0.019544831
-0.022694215 0.022010077 -0.01967217
-0.014948934 0.023382803 -0.019653134
-0.0026430399 0.023215262 -0.018937292
-0.00087941345 0.023151282 -0.01897718
0.00092806434 0.022519249 -0.019027017
0.0026838179 0.022047309 -0.018939765
0.0037805 0.021693779 -0.018813612
-0.030982953 0.023962244 -0.018196195
-0.029729737 0.024264174 -0.018552171
-0.02786852 0.024316037 -0.019167453
-0.026099766 0.024383496 -0.019586695
-0.024814434 0.02468434 -0.019664196
-0.018451873 0.02459484 -0.018848388
-0.017291892 0.024136551 -0.018968396
-0.015274098 0.023726927 -0.018956751
-0.01358773 0.023669748 -0.018800229
-0.011685963 0.024221698 -0.018924925
-0.0099142352 0.02434217 -0.018899873
-0.0081270728 0.024238596 -0.018942796
-0.0062785009 0.02393914 -0.01888242
-0.0045883688 0.023763219 -0.018720834
-0.0027062171 0.0234595 -0.018401021
-0.029213121 0.02544344 -0.018378939
-0.027858522 0.026045332 -0.018723536
-0.026147984 0.02607825 -0.019309454
-0.024256881 0.026464786 -0.019287603
-0.022433797 0.026586108 -0.018997205
-0.020712715 0.026395964 -0.018884886
-0.019337052 0.025635866 -0.018735634
-0.027218876 0.027164815 -0.018197315
-0.025939949 0.02732658 -0.018563008
-0.024430681 0.027293403 -0.018365216
-0.022829872 0.027171139 -0.018404987
0.012534 -0.039648999 -0.016576501
0.013647519 -0.039777514 -0.016842827
0.015231452 -0.039869897 -0.016852487
0.016593 -0.039754253 -0.016591197
0.0034845001 -0.037836168 -0.01647
0.0046522585 -0.038061708 -0.016773075
0.0062833135 -0.038342915 -0.017085196
0.0082430607 -0.038516372 -0.017063959
0.0098402621 -0.038735829 -0.017117342
0.011676613 -0.039232269 -0.017137922
0.013188001 -0.0394683 -0.017608782
0.01539761 -0.039452553 -0.017774668
0.0172539 -0.0392031 -0.017221237
0.018849133 -0.038380716 -0.016982885
0.020029198 -0.037909202 -0.0162798
-0.0038314445 -0.036079999 -0.016588777
-0.00263775 -0.03623458 -0.016872602
-0.00078755937 -0.036541548 -0.017073592
0.00094796857 -0.037048828 -0.01691228
0.00262143 -0.037483886 -0.016948272
0.0042981673 -0.037615005 -0.017707
0.019440953 -0.037581362 -0.017630864
0.020866735 -0.036860358 -0.016912263
0.021734459 -0.036147423 -0.016790418
-0.0075930953 -0.034436867 -0.016972572
-0.0063325306 -0.035062719 -0.01706586
-0.0046354122 -0.035673656 -0.017081331
-0.0030015337 -0.035921734 -0.017674267
0.021539249 -0.035927497 -0.017872749
0.022481961 -0.035070095 -0.017059958
0.023578029 -0.034510598 -0.016460165
-0.009726543 -0.033036213 -0.016992085
-0.0084723607 -0.03388169 -0.01724105
0.023215819 -0.033693548 -0.017504396
0.02374143 -0.03303669 -0.017240781
-0.011210799 -0.031339776 -0.017080171
-0.010438641 -0.031880416 -0.017592318
0.024331395 -0.031780168 -0.017412089
0.025881646 -0.03124927 -0.016699038
0.027143249 -0.030795 -0.0162395
-0.012839093 -0.029067511 -0.016670255
-0.01199517 -0.029869586 -0.017220207
0.025131499 -0.030499749 -0.0178355
0.02605187 -0.03007541 -0.01744679
0.027632184 -0.029476911 -0.016764065
-0.014416876 -0.027218752 -0.016293375
-0.013617574 -0.027773447 -0.016951183
-0.012371241 -0.028395928 -0.017752515
0.028289063 -0.028273314 -0.01720175
0.029537603 -0.027505536 -0.016958315
0.031547952 -0.027088398 -0.0162938
0.032402001 -0.027022999 -0.016251998
-0.013801034 -0.025885589 -0.017193336
0.030121544 -0.026696846 -0.017516524
0.031393092 -0.026152615 -0.016983578
0.033123787 -0.026082586 -0.016478349
0.034666408 -0.025525501 -0.016303549
-0.018581625 -0.02363842 -0.016704889
-0.017131271 -0.024069238 -0.016980018
-0.015234722 -0.024483478 -0.017248064
-0.01421545 -0.02449003 -0.017652767
0.031787463 -0.02443067 -0.017551711
0.033167638 -0.024302185 -0.017143572
0.035174385 -0.024285039 -0.016720522
0.036838144 -0.024110146 -0.016553687
0.038674548 -0.023938818 -0.016643927
0.040317751 -0.023718115 -0.016386639
0.041825 -0.023456249 -0.016271498
-0.0221943 -0.021915903 -0.016524792
-0.020566925 -0.022389045 -0.016843857
-0.019013355 -0.022720937 -0.017280402
-0.017196791 -0.022466416 -0.017622866
-0.015219048 -0.022464434 -0.017730918
-0.014108327 -0.022655118 -0.017816307
0.032294501 -0.023382999 -0.017930498
0.033405516 -0.022921171 -0.01773061
0.035134062 -0.022647526 -0.017583648
0.036916766 -0.022559725 -0.017467516
0.038704664 -0.022443958 -0.017401764
0.04042495 -0.022541378 -0.017018696
0.042343538 -0.022474935 -0.016884256
0.044063233 -0.022397324 -0.016636437
0.045160335 -0.0219528 -0.016300134
-0.025308836 -0.019966833 -0.016307164
-0.024169087 -0.020127153 -0.016463153
-0.022483993 -0.020772733 -0.016952965
-0.02076084 -0.020645119 -0.017503822
-0.018961031 -0.020668019 -0.017702594
-0.017284954 -0.020752186 -0.017854966
-0.015237154 -0.021143965 -0.017928934
0.03752625 -0.021522751 -0.01791025
0.038476333 -0.021454094 -0.017929142
0.040527832 -0.021332067 -0.017829517
0.042557988 -0.021033777 -0.017746026
0.044144955 -0.020711573 -0.017150709
0.045249559 -0.02061894 -0.016480418
-0.025743717 -0.018678827 -0.016474286
-0.024420548 -0.018902067 -0.01695599
-0.022453966 -0.018903846 -0.017436413
-0.020676835 -0.018919758 -0.017585197
-0.01889045 -0.018868484 -0.017575452
-0.017292371 -0.018735824 -0.017845726
-0.015989924 -0.018487539 -0.017978692
0.043129668 -0.019595999 -0.017922666
0.044298053 -0.0188051 -0.017376447
0.045369282 -0.018784925 -0.016581377
-0.027499132 -0.016501807 -0.016360644
-0.026099609 -0.017122667 -0.016688811
-0.024409765 -0.017197885 -0.017513188
-0.02258667 -0.017559335 -0.017821001
-0.020602604 -0.01761112 -0.01777116
-0.018681344 -0.017543025 -0.017773574
-0.017422665 -0.017378625 -0.017735237
0.044546679 -0.017233022 -0.017450726
0.04563193 -0.017183039 -0.016649231
-0.028973499 -0.014634 -0.0163121
-0.027716605 -0.015210643 -0.016869659
-0.026261965 -0.015424445 -0.017578524
-0.0249174 -0.0159392 -0.0179276
0.044549484 -0.015322687 -0.017538164
0.045632884 -0.015253845 -0.016717548
-0.029168965 -0.013255483 -0.016466087
-0.028071361 -0.013657757 -0.017247023
-0.026880004 -0.014114572 -0.017920999
0.044233598 -0.01337395 -0.017252319
0.045219343 -0.014137147 -0.016605705
-0.030834073 -0.011098358 -0.016378
-0.029650234 -0.011545168 -0.017110722
-0.028463753 -0.012188436 -0.017705593
0.042817783 -0.011427451 -0.017135156
0.043417115 -0.012337266 -0.017135998
-0.032745317 -0.0092764795 -0.016339758
-0.03145073 -0.0097047044 -0.016751345
-0.030068081 -0.010060951 -0.017600771
0.041237827 -0.0092884786 -0.017114697
0.041941255 -0.010232998 -0.017069601
-0.034294501 -0.0072795008 -0.0162705
-0.03321765 -0.0079804193 -0.01659424
-0.031518448 -0.0081690885 -0.017404782
-0.030307591 -0.0080843801 -0.017917451
0.0403856 -0.0080836909 -0.017003531
-0.034574706 -0.0062905154 -0.01636819
-0.033321328 -0.0063792053 -0.016903857
-0.031539671 -0.0062801298 -0.01753539
-0.030354809 -0.0061428715 -0.01791258
0.039496697 -0.0060422304 -0.016902877
0.039700188 -0.0067754225 -0.017121933
-0.034370199 -0.0051028002 -0.0162754
-0.033197038 -0.0045594964 -0.016517732
-0.031526815 -0.0045092809 -0.017134622
-0.030062437 -0.0045544133 -0.017761985
0.038978502 -0.0045727221 -0.016982106
-0.032700077 -0.0031829234 -0.016296616
-0.031504352 -0.0026813152 -0.016753221
-0.029706266 -0.002641303 -0.017615326
0.038529109 -0.0027693205 -0.01709218
-0.031297576 -0.0010023768 -0.016526259
-0.029626993 -0.00077460904 -0.017389603
-0.028602755 -0.00041341662 -0.017902415
0.037559994 -0.000523358 -0.017063668
0.038053118 -0.0013907127 -0.016928378
-0.030949287 0.00085354847 -0.016432548
-0.029671332 0.00092082057 -0.01708358
-0.02840017 0.00099348777 -0.017790001
0.035883442 0.0016790804 -0.016568398
0.036631465 0.00095005351 -0.017059358
-0.030768335 0.0022355001 -0.0163115
-0.029703099 0.0026660182 -0.01673256
-0.028058965 0.0027855553 -0.017658452
0.035324588 0.0027509921 -0.017050002
-0.029565763 0.004498044 -0.016438251
-0.027952531 0.004528007 -0.017335046
-0.026728086 0.004796125 -0.017895456
0.034052916 0.0044831368 -0.017773313
0.034537233 0.0042725881 -0.017139236
-0.029333884 0.0061683091 -0.016434947
-0.027829006 0.0063268729 -0.017130394
-0.026342712 0.0064835832 -0.017803486
-0.024815924 0.0069692302 -0.017965538
0.033616092 0.0062322072 -0.017117841
-0.029124709 0.0082626268 -0.016375458
-0.027901979 0.0081776036 -0.016970394
-0.026138529 0.0081072012 -0.017524222
-0.024619518 0.0081060175 -0.01787119
0.032247785 0.0087389993 -0.016912159
0.03282354 0.0078003397 -0.017144317
-0.030957097 0.010501301 -0.016484348
-0.029627061 0.0099236919 -0.016724458
-0.027828511 0.0097542517 -0.017013844
-0.026055424 0.0098686013 -0.017229205
-0.024625205 0.0098319231 -0.017594859
0.031341992 0.010001301 -0.017068962
-0.032504 0.012364 -0.0162335
-0.031502824 0.011715172 -0.016652336
-0.029783729 0.011676024 -0.017032636
-0.027873563 0.011693371 -0.017085841
-0.025934229 0.011573414 -0.017128322
-0.024715576 0.011676151 -0.017581457
0.029954165 0.011899997 -0.017146174
0.030697042 0.010965333 -0.017055951
-0.032743406 0.013665028 -0.016362689
-0.03157502 0.013491029 -0.016821824
-0.029650033 0.013554507 -0.017029842
-0.027953861 0.013495737 -0.017023703
-0.025870906 0.013507847 -0.017101968
-0.02490898 0.013530885 -0.017628079
0.028503019 0.013990173 -0.017206537
0.029074471 0.013072668 -0.017192326
-0.03278476 0.015378716 -0.016349548
-0.031646434 0.015459394 -0.016845847
-0.029629169 0.015370077 -0.016987337
-0.027933095 0.015388517 -0.017103266
-0.0260462 0.015280958 -0.017192634
-0.024963718 0.01520528 -0.017788051
0.02661879 0.015921298 -0.017340193
0.027562518 0.014998171 -0.017062727
-0.032758538 0.017167699 -0.016394524
-0.031579278 0.017167296 -0.016949721
-0.02975123 0.017113991 -0.017159427
-0.027851328 0.017121878 -0.017327419
-0.026037915 0.01731213 -0.017626014
-0.02456698 0.017554643 -0.01779199
-0.023329062 0.017903315 -0.017945062
0.019407092 0.017793002 -0.017917637
0.020724589 0.017538842 -0.017806964
0.022619545 0.017448764 -0.017548041
0.024324086 0.01725821 -0.017220128
0.025807025 0.016698766 -0.016982177
-0.033152848 0.018858492 -0.016707676
-0.031624828 0.018715464 -0.01750421
-0.029580992 0.018556459 -0.017719675
-0.027834434 0.018524976 -0.017624851
-0.025795389 0.018711096 -0.017407142
-0.024292542 0.018686021 -0.017615832
-0.023333263 0.018278969 -0.017937426
0.0141775 0.019757248 -0.017870748
0.015341987 0.019628303 -0.017705658
0.017168893 0.019456055 -0.017662792
0.018932849 0.019090071 -0.017422263
0.020728139 0.018989321 -0.01699784
0.022333032 0.018565664 -0.016741054
0.023675686 0.018208001 -0.016470937
-0.034254 0.0214785 -0.016259499
-0.033482648 0.020688146 -0.017083256
-0.032038018 0.020476405 -0.017876001
-0.025307288 0.019856144 -0.017895143
-0.024770482 0.019913945 -0.017909035
0.00486877 0.021264993 -0.017098201
0.00622648 0.021294238 -0.017125178
0.0081108781 0.02087513 -0.017203087
0.0098914299 0.020879997 -0.017159143
0.011786026 0.020394156 -0.017172206
0.013481437 0.020241875 -0.017186224
0.01534213 0.020076742 -0.016843157
0.01705559 0.020184448 -0.016764522
0.018680505 0.02004312 -0.016533118
0.019983714 0.019858001 -0.016361572
-0.034261834 0.021920165 -0.016270168
-0.033262771 0.022513198 -0.017128559
-0.032081295 0.022547437 -0.017824534
-0.002370341 0.023185404 -0.017282549
-0.00081435184 0.022812823 -0.017090509
0.00085510733 0.022626193 -0.017146867
0.0026636063 0.022325298 -0.017093511
0.0039066193 0.021788739 -0.016974382
-0.033136215 0.024130365 -0.016499104
-0.031641163 0.024531012 -0.017327204
-0.030350095 0.02506973 -0.017858092
-0.018133929 0.025038999 -0.017892785
-0.017071292 0.024892455 -0.017379854
-0.015430116 0.024402644 -0.017106917
-0.013352896 0.023803493 -0.017139394
-0.011788954 0.024108469 -0.01689785
-0.0099185128 0.02427296 -0.017071594
-0.0080975229 0.024249349 -0.017041558
-0.0062168399 0.024161559 -0.017011024
-0.0046459748 0.024208291 -0.017157691
-0.0031168866 0.023665287 -0.017081143
-0.032516431 0.025374001 -0.016288858
-0.031282298 0.025787769 -0.016603326
-0.029684288 0.026127569 -0.016947635
-0.02834346 0.026547724 -0.0172335
-0.021687999 0.026968665 -0.017811
-0.020512719 0.026805054 -0.017151643
-0.018879725 0.026008481 -0.017162712
-0.017659869 0.025396021 -0.016624914
-0.029299693 0.027070615 -0.016267076
-0.027606785 0.027435143 -0.016906971
-0.025986172 0.027806196 -0.01711669
-0.024323689 0.027744584 -0.017188329
-0.022553513 0.027343521 -0.017073942
-0.021245953 0.027043099 -0.016585199
0.012386858 -0.039665356 -0.015776144
0.013532474 -0.039860703 -0.015328175
0.015319505 -0.040061403 -0.015309243
0.017159466 -0.039951969 -0.01521459
0.01846276 -0.039707717 -0.014850359
0.0034306664 -0.037846226 -0.015931666
0.0045727692 -0.038126249 -0.015439662
0.0063119745 -0.038500365 -0.015223235
0.0081670713 -0.038725171 -0.015247017
0.0097797699 -0.038928453 -0.015236713
0.011533878 -0.039301492 -0.015193021
0.01294325 -0.039506499 -0.014642374
0.017905399 -0.039514799 -0.015974401
0.019108009 -0.039076924 -0.015444804
0.020564457 -0.038445178 -0.015153128
0.022028076 -0.038113423 -0.014670653
-0.0038555339 -0.036149867 -0.015416531
-0.0027861441 -0.03643059 -0.015199511
-0.00082035724 -0.03681244 -0.015239407
0.00089752791 -0.037168894 -0.015275631
0.0027334504 -0.037502211 -0.015253827
0.0040080007 -0.037685435 -0.014759999
0.021222061 -0.037231769 -0.015921136
0.022363547 -0.036708098 -0.015138537
-0.0078770611 -0.034600161 -0.015136892
-0.0062439418 -0.035254169 -0.015306015
-0.0047894581 -0.03553823 -0.015189215
0.0228986 -0.035628464 -0.015498696
0.024031885 -0.03490163 -0.015222596
-0.010881799 -0.0324644 -0.015583299
-0.0099419365 -0.03302956 -0.015207115
-0.0087526571 -0.034020372 -0.01520747
0.024868354 -0.033757124 -0.015590145
0.026095875 -0.03307651 -0.015219955
-0.01152237 -0.031578746 -0.015265387
-0.010646143 -0.032296713 -0.014696
0.026687002 -0.032160141 -0.015409809
0.027629713 -0.031437077 -0.015067027
0.028837999 -0.030663002 -0.014414999
-0.012747397 -0.029173918 -0.015472259
-0.01242158 -0.030051038 -0.015347351
0.028239697 -0.029914154 -0.015597021
0.029616628 -0.029593926 -0.015025359
0.031427912 -0.029336456 -0.014868661
0.033201341 -0.029258054 -0.014666593
0.034753501 -0.029100733 -0.014501588
-0.014409714 -0.027236143 -0.01614943
-0.013662637 -0.027804034 -0.015247274
0.03003479 -0.028075729 -0.015876867
0.031457942 -0.027955765 -0.015697189
0.033309612 -0.027868837 -0.015558816
0.035020191 -0.027838066 -0.015038962
0.036892597 -0.027552499 -0.014723194
0.038609285 -0.027501898 -0.014628938
0.039891563 -0.027244499 -0.014521124
-0.014713525 -0.025340842 -0.015339127
-0.014108467 -0.026150804 -0.015417096
0.033611391 -0.026875913 -0.016126959
0.035190932 -0.026335154 -0.015804904
0.0368919 -0.026063818 -0.015479342
0.038755734 -0.026090013 -0.015230467
0.040505398 -0.026106665 -0.01489721
0.042178381 -0.025620501 -0.014587741
0.044021334 -0.025329167 -0.014475167
0.045530044 -0.025373347 -0.014496435
-0.018719323 -0.023662418 -0.015447837
-0.017073218 -0.024337761 -0.015334516
-0.015504154 -0.025013559 -0.015354771
0.035901003 -0.02513 -0.016193001
0.037026107 -0.024912667 -0.016040642
0.038786836 -0.024859617 -0.0158563
0.040668327 -0.024538638 -0.015870541
0.042272687 -0.024383686 -0.015353101
0.044106789 -0.024270771 -0.015258578
0.045848168 -0.024256876 -0.014987472
0.046929002 -0.023518002 -0.014458667
-0.022512658 -0.022057872 -0.01540701
-0.020715488 -0.022898061 -0.01538995
-0.019584667 -0.023314618 -0.015157667
0.042970002 -0.023298601 -0.01615
0.04440248 -0.023189709 -0.016022965
0.045854948 -0.022626517 -0.015477754
0.04749275 -0.022258222 -0.014611427
-0.025837179 -0.020061275 -0.015330337
-0.024302015 -0.020775512 -0.015475717
-0.023286 -0.021483902 -0.0155636
0.046094354 -0.020709898 -0.015682673
0.047806516 -0.020622879 -0.014899065
0.048728377 -0.020359311 -0.014548534
-0.028945504 -0.018220168 -0.014478333
-0.027624853 -0.018864093 -0.015051473
-0.026640065 -0.019207956 -0.015755402
0.046212394 -0.019089175 -0.015801346
0.047652327 -0.018962884 -0.014961304
0.048712999 -0.019602001 -0.014444
-0.030748311 -0.016547229 -0.014485078
-0.029512525 -0.017041296 -0.014840676
-0.027962202 -0.017191505 -0.015725255
-0.026885403 -0.017795598 -0.0161718
0.046560276 -0.01705822 -0.016005056
0.047267564 -0.017106343 -0.015146196
-0.032719247 -0.014688583 -0.0144765
-0.031260092 -0.015142246 -0.014695476
-0.029747669 -0.015264934 -0.015382677
-0.028541304 -0.015735826 -0.016022738
0.046246823 -0.015220091 -0.015461503
0.046875253 -0.0160925 -0.015094168
-0.034698188 -0.013022811 -0.014501312
-0.033178397 -0.013461929 -0.014760072
-0.031452157 -0.013579744 -0.015255419
-0.029999087 -0.013608722 -0.015868615
0.04448865 -0.013207976 -0.015474223
0.04528369 -0.014049739 -0.015399206
-0.036360689 -0.011214125 -0.014521
-0.03511944 -0.011591213 -0.01473037
-0.033271931 -0.011679803 -0.015171912
-0.031537559 -0.011751156 -0.015688708
-0.030368848 -0.012407538 -0.016049692
0.042844515 -0.011302182 -0.015613542
0.043587081 -0.012148463 -0.015249038
-0.038099121 -0.0093769422 -0.014593118
-0.036788758 -0.0098587126 -0.014847629
-0.03509365 -0.0098364837 -0.015197663
-0.033381246 -0.0099303797 -0.015732152
-0.032112539 -0.010359542 -0.016004877
0.041266341 -0.009162236 -0.015405946
0.041874193 -0.0099330675 -0.015272724
-0.038404606 -0.0080308327 -0.014677051
-0.036810756 -0.0079104453 -0.015191154
-0.035171881 -0.0080582155 -0.015678892
-0.033952951 -0.0084069483 -0.016071264
0.040599417 -0.0080120824 -0.01534084
0.041418001 -0.0089580007 -0.014441001
-0.038387042 -0.0062813642 -0.014706902
-0.036903486 -0.0064486968 -0.015338132
-0.035493277 -0.0062149698 -0.015967654
0.039470922 -0.0061518406 -0.015600539
0.039810658 -0.0069628749 -0.015263613
-0.038302597 -0.0049491436 -0.014625769
-0.036868718 -0.0045198938 -0.015063044
-0.035207812 -0.0045059011 -0.015761314
-0.03384725 -0.0039444999 -0.016115166
0.038950689 -0.0046246117 -0.015419913
-0.036556177 -0.0028331776 -0.014638019
-0.035096075 -0.002720359 -0.015226502
-0.033483807 -0.0026217145 -0.015854377
0.038383 -0.002663305 -0.015437636
-0.036126144 -0.0015719994 -0.014453572
-0.035101611 -0.0010103163 -0.014696076
-0.033290654 -0.0008555731 -0.01549072
-0.032117367 -0.00068429596 -0.016056219
0.037481464 -0.00047538863 -0.015172971
0.038020272 -0.0013803825 -0.015431676
-0.034554549 0.00082131603 -0.014521262
-0.033402435 0.0009925242 -0.015057765
-0.031901285 0.00093386462 -0.015865201
0.035637069 0.0015009135 -0.015217395
0.0365991 0.00066478149 -0.015359952
-0.036132634 0.0032026363 -0.014466271
-0.034925211 0.0027944704 -0.014569652
-0.033449266 0.0028076258 -0.0148172
-0.031600181 0.0029066626 -0.015709704
-0.030466601 0.0034048003 -0.0161756
0.034865856 0.0026486581 -0.015344051
-0.036254235 0.0045624231 -0.014474808
-0.034844477 0.0045446786 -0.014655986
-0.033454545 0.0044853915 -0.014759111
-0.031579617 0.0044344584 -0.015575848
-0.030409263 0.0046153679 -0.016173683
0.034181431 0.004675 -0.014458714
0.034407753 0.0043962183 -0.015344378
-0.036153961 0.0062056524 -0.014450129
-0.035014372 0.0062998505 -0.014556001
-0.033420105 0.0062763323 -0.014731303
-0.031425111 0.0063497238 -0.015693437
-0.030197049 0.0064395312 -0.016056532
0.033660084 0.0064567151 -0.015299788
0.034251541 0.0055383635 -0.015335181
-0.034761455 0.0073725753 -0.014451304
-0.033348523 0.0080507901 -0.014732051
-0.031429145 0.0080163786 -0.015484558
-0.030119447 0.0081946747 -0.015877312
0.032139502 0.0086337104 -0.015077128
0.032819767 0.0077287969 -0.015426813
-0.034390777 0.010140999 -0.014501557
-0.033326469 0.0099230455 -0.014983639
-0.031540539 0.0097382246 -0.015754566
-0.030029336 0.0093210284 -0.016022444
0.031235119 0.0099052703 -0.015377035
-0.036019001 0.012491001 -0.014464001
-0.034918211 0.011962143 -0.01472384
-0.033425592 0.011800725 -0.015536483
-0.03216929 0.01110843 -0.016086571
0.030028263 0.0118741 -0.015338932
0.030648641 0.010964429 -0.015562071
-0.036305241 0.01363159 -0.014528116
-0.035104726 0.013492984 -0.01501104
-0.033573393 0.013399736 -0.015832577
0.02850895 0.014002951 -0.015295953
0.029167566 0.012986428 -0.015308372
-0.036388587 0.015146477 -0.014534391
-0.035002254 0.015295215 -0.014997317
-0.033773322 0.015471935 -0.015915371
0.026865713 0.016007667 -0.015447427
0.027585508 0.015108418 -0.015395474
-0.034403615 0.016458388 -0.014638833
-0.033715267 0.017185252 -0.015415437
0.024906997 0.017749462 -0.015423063
0.025924362 0.01696457 -0.015329468
-0.034315214 0.019247539 -0.014629266
-0.034034468 0.018853681 -0.015436006
0.021194624 0.019706748 -0.016115749
0.022775115 0.019400703 -0.015787866
0.024049578 0.018721722 -0.015177283
-0.0347054 0.0209016 -0.015148768
-0.034143027 0.020321084 -0.015565437
0.0051094452 0.021369901 -0.015374661
0.0062877974 0.021403247 -0.015305315
0.0081856521 0.021062631 -0.015397425
0.0098597258 0.020914182 -0.015268135
0.011780933 0.020835184 -0.015223652
0.013531332 0.020606034 -0.015352442
0.015295051 0.020627607 -0.015296122
0.017057419 0.020744598 -0.015337774
0.018929571 0.020779921 -0.015358897
0.020654118 0.02048409 -0.015291171
0.022388022 0.020261515 -0.014952451
0.023434334 0.019880001 -0.014533333
-0.036260664 0.022595648 -0.014593777
-0.034993526 0.022475654 -0.015398182
-0.034095127 0.022948688 -0.016046938
-0.0020055415 0.023223624 -0.015543209
-0.00098589086 0.022778653 -0.015219947
0.0010310079 0.022492932 -0.015144874
0.0026624927 0.022354964 -0.01527731
0.0041328403 0.021891985 -0.015154906
-0.036190391 0.023875868 -0.014476161
-0.035028063 0.02420494 -0.014911774
-0.033622164 0.024454607 -0.015676022
-0.016432 0.025129002 -0.016011
-0.015116611 0.024875313 -0.015283292
-0.013474365 0.024369257 -0.015292933
-0.011758344 0.02432758 -0.015381319
-0.0098044276 0.024282577 -0.015271975
-0.0080833687 0.02447095 -0.015343654
-0.0063842116 0.024569439 -0.015387428
-0.0045542954 0.024400182 -0.01529862
-0.0028201423 0.023819091 -0.015229029
-0.034527142 0.025415543 -0.014534729
-0.033119481 0.026171139 -0.015030432
-0.031640917 0.026556779 -0.01564787
-0.030386614 0.02677417 -0.016112
-0.022522109 0.026969779 -0.014518389
-0.020426307 0.026918927 -0.015169271
-0.018850336 0.026509505 -0.015398545
-0.0172527 0.025654586 -0.015296645
-0.015811477 0.025329953 -0.014771
-0.031159665 0.027311558 -0.014909715
-0.029600602 0.027369598 -0.0151917
-0.028028021 0.02751554 -0.015316507
-0.026127903 0.027912082 -0.015349127
-0.024297897 0.027621239 -0.015298063
-0.022436654 0.027215498 -0.015338365
-0.021018587 0.027082473 -0.015759237
0.014087 -0.039625 -0.014373
0.015379963 -0.03974963 -0.01419652
0.017149452 -0.039818484 -0.013985165
0.018880866 -0.03972736 -0.013668499
0.0203225 -0.039633498 -0.013004706
0.0050955 -0.037802503 -0.0143465
0.0064737205 -0.037988678 -0.014127761
0.0081251189 -0.038264707 -0.014003568
0.0099488553 -0.038461775 -0.013833384
0.01166038 -0.03853495 -0.013588195
0.013494417 -0.038809419 -0.013430829
0.015283962 -0.039157648 -0.013370038
0.016993552 -0.039350729 -0.013175868
0.019149443 -0.039493266 -0.013256259
0.020726634 -0.039331008 -0.013774892
0.022644565 -0.038702697 -0.013519425
0.023848608 -0.038204063 -0.012979512
-0.0025248334 -0.036181524 -0.014106194
-0.00076555781 -0.036369056 -0.013852152
0.00083455991 -0.036546782 -0.013700961
0.0027398572 -0.036855958 -0.013637286
0.004538157 -0.037200756 -0.013620055
0.006112 -0.037308812 -0.013323648
0.0079817399 -0.037475523 -0.013038303
0.0096987775 -0.037660778 -0.012820556
0.023084825 -0.037346866 -0.014181362
0.024208177 -0.03696841 -0.013533633
0.025804069 -0.036672793 -0.012881235
-0.0075351498 -0.034411047 -0.014125151
-0.0062108282 -0.034772374 -0.013790193
-0.0044476143 -0.03515875 -0.013583398
-0.0029166385 -0.03552743 -0.013367499
-0.0009498077 -0.035761695 -0.013030577
0.00053366681 -0.035854336 -0.012699167
0.024513455 -0.035287041 -0.014099454
0.026082501 -0.035145383 -0.013339506
0.02758711 -0.034820061 -0.012770335
0.040413558 -0.034387361 -0.012668439
-0.0097246934 -0.032952428 -0.013758274
-0.0082891239 -0.033694062 -0.013465283
-0.0066118822 -0.034027234 -0.012869176
0.025098501 -0.033996504 -0.014322333
0.026264664 -0.033238064 -0.013868031
0.027981313 -0.033271268 -0.013135287
0.029218415 -0.032871455 -0.01280215
0.033802204 -0.032494798 -0.0126316
0.035341833 -0.032744728 -0.012759095
0.037006423 -0.032995131 -0.01280001
0.038583815 -0.033164687 -0.012769177
0.040504344 -0.033366643 -0.01299571
0.042190161 -0.033148982 -0.012921972
0.043331273 -0.032740202 -0.0127196
-0.011621092 -0.03134995 -0.013600559
-0.010567363 -0.032214686 -0.013371001
0.026842143 -0.032225762 -0.014098619
0.027904814 -0.031664215 -0.014023369
0.029732065 -0.031584274 -0.013507589
0.031459153 -0.031411778 -0.013231536
0.033335451 -0.03155677 -0.013119763
0.035139013 -0.03139795 -0.013409583
0.036904905 -0.031588547 -0.01324005
0.038614158 -0.03148919 -0.013094844
0.040456232 -0.031443346 -0.013446029
0.042278524 -0.031451412 -0.013248281
0.043892112 -0.031250749 -0.012886033
0.045335121 -0.030894078 -0.01275388
-0.012656936 -0.029192058 -0.013628311
-0.012432785 -0.029911913 -0.013314575
0.030167785 -0.030340891 -0.014260214
0.031449918 -0.030230135 -0.014110431
0.033406343 -0.030141445 -0.014082697
0.035222165 -0.029858252 -0.014049372
0.037023183 -0.029553913 -0.013497434
0.038658157 -0.029671999 -0.013588897
0.040469613 -0.029659111 -0.013722531
0.042408649 -0.029644728 -0.013613049
0.044088535 -0.029609909 -0.013480492
0.045591813 -0.029649308 -0.012938664
-0.01294218 -0.027808093 -0.013540068
-0.012578 -0.028749999 -0.01263
0.035797253 -0.028474584 -0.014301499
0.036833826 -0.028322095 -0.014020578
0.038890637 -0.028312897 -0.014209318
0.040481523 -0.02798504 -0.014034391
0.042163476 -0.027929863 -0.013977783
0.044131987 -0.027989509 -0.013981014
0.045813169 -0.027834821 -0.013232365
0.047165222 -0.027266001 -0.012714184
-0.014893129 -0.025482768 -0.013367623
-0.013632655 -0.026325766 -0.013482893
0.041282449 -0.026867 -0.014259446
0.042317111 -0.02650011 -0.014218139
0.044078741 -0.026233491 -0.014179358
0.045883656 -0.026243363 -0.013861195
0.047644768 -0.026136318 -0.013006934
0.048894756 -0.025500748 -0.012671835
-0.018530004 -0.023645731 -0.013535534
-0.017121263 -0.024316229 -0.013347242
-0.015771741 -0.024992568 -0.013387826
0.046671607 -0.0248404 -0.0141581
0.047669828 -0.024367338 -0.01361217
0.04934426 -0.024080882 -0.012933056
-0.022385163 -0.022010395 -0.013578501
-0.020720389 -0.022750514 -0.013438126
-0.019453822 -0.023227459 -0.013373846
0.048041523 -0.022703348 -0.014165259
0.049442247 -0.022599133 -0.013404765
-0.025877405 -0.020183951 -0.01372504
-0.024406971 -0.020916527 -0.013618346
-0.023262002 -0.021542 -0.013578667
0.048549667 -0.021449998 -0.014372334
0.04931299 -0.020787509 -0.013667547
-0.029466689 -0.018305767 -0.013425004
-0.02807398 -0.01909861 -0.013631914
-0.026807666 -0.01974267 -0.013368499
0.048424225 -0.018267725 -0.013756528
0.048894931 -0.0190944 -0.013531225
-0.034266502 -0.016268501 -0.012709501
-0.033054668 -0.016496807 -0.013148588
-0.031446256 -0.017138889 -0.013497811
-0.030228117 -0.017791098 -0.013792958
0.047714472 -0.017188905 -0.01337562
-0.036476336 -0.014752406 -0.012898879
-0.035043009 -0.015254392 -0.013273586
-0.033492565 -0.015427124 -0.013835002
-0.031866111 -0.015859591 -0.014232222
0.046293445 -0.015137543 -0.0133734
0.046917159 -0.016020695 -0.013258656
-0.038482156 -0.013105544 -0.012870638
-0.036922891 -0.013569135 -0.013384961
-0.035199482 -0.013725352 -0.014094309
-0.03394109 -0.014126183 -0.014294728
0.044577323 -0.013029877 -0.013548982
0.045388252 -0.013989423 -0.013466825
-0.041439001 -0.010892998 -0.012620999
-0.040298209 -0.011551813 -0.012918095
-0.038713895 -0.011700495 -0.013380365
-0.037165422 -0.011868789 -0.014077646
-0.035859 -0.012513999 -0.014347999
0.04293054 -0.011114598 -0.013495142
0.04370553 -0.012038333 -0.013518921
-0.041944403 -0.0096140308 -0.012824924
-0.04059938 -0.0099550374 -0.013203302
-0.038885392 -0.009964833 -0.013868496
-0.037731253 -0.010560749 -0.01428825
0.042114064 -0.0098385047 -0.013496045
-0.043369122 -0.0078674126 -0.01265994
-0.042317566 -0.008115056 -0.012929381
-0.040533576 -0.0080638239 -0.013438452
-0.039298821 -0.0081606973 -0.014196697
0.040947527 -0.0078970753 -0.013540709
0.04157459 -0.0087361066 -0.013437181
-0.043323837 -0.0069468338 -0.012639334
-0.042166308 -0.0063288892 -0.012837629
-0.040601432 -0.0063907751 -0.013495305
-0.039268997 -0.0063094022 -0.014204375
0.039450791 -0.0058227484 -0.013721919
0.040091556 -0.006683168 -0.013496218
-0.041732252 -0.0050047091 -0.012730042
-0.040433209 -0.0045111086 -0.013356132
-0.038996577 -0.0043768762 -0.014065471
-0.037767999 -0.0037479999 -0.014390002
0.038937453 -0.004494634 -0.013586014
-0.040198337 -0.0027291554 -0.012981331
-0.038822569 -0.0026253923 -0.013461477
-0.037379246 -0.0025336766 -0.014166027
0.038171995 -0.0025944591 -0.013495302
-0.040000331 -0.00095506752 -0.012817541
-0.038679291 -0.00088624679 -0.013168896
-0.036859982 -0.00081316842 -0.013928931
-0.035721518 -0.00041325932 -0.014256445
