# .PCD v0.7 - Point Cloud Data file format
VERSION 0.7
FIELDS x y z
SIZE 4 4 4
TYPE F F F
COUNT 1 1 1
WIDTH 1284
HEIGHT 1
VIEWPOINT 0 0 0 1 0 0 0
POINTS 1284
DATA ascii
-0.038773537 -0.025677118 0.009790442
-0.036873914 -0.026049089 0.0098688584
-0.035137713 -0.026459485 0.010108661
-0.033656489 -0.026797464 0.010178961
-0.0041744271 -0.026992025 0.010777075
0.050236985 -0.026059574 0.0099198623
0.0505169 -0.025886768 0.010683239
-0.050567422 -0.023668533 0.0096911164
-0.049499407 -0.024101345 0.0099573452
-0.047744434 -0.024685388 0.0099225901
-0.046052672 -0.024972452 0.0099830227
-0.044795427 -0.025143649 0.010560225
-0.038619705 -0.025139002 0.010760665
0.050139349 -0.024394939 0.0096743945
0.050845694 -0.024024693 0.010340308
-0.051224787 -0.022565857 0.0098863067
0.04837076 -0.02176946 0.01072495
0.049665343 -0.0223215 0.01007779
0.051130552 -0.022622306 0.0096848663
-0.052402802 -0.019920401 0.0090741999
-0.051219236 -0.020572383 0.0099403448
0.048387714 -0.020859905 0.01057387
0.049440309 -0.020667637 0.010089994
0.050957114 -0.020851631 0.0097708823
-0.054534994 -0.018430492 0.0095898099
-0.053101081 -0.019080548 0.0098654134
-0.051750328 -0.01947647 0.010406996
0.048513047 -0.0197243 0.01077535
0.049697727 -0.01917173 0.010134786
0.050939526 -0.018800804 0.0095652221
-0.057691514 -0.016269427 0.0095021119
-0.056608114 -0.016930493 0.0098638535
-0.055312511 -0.017731028 0.010155668
0.050905906 -0.017164778 0.0097278357
-0.059646491 -0.014593667 0.0097243078
-0.058601879 -0.015430273 0.0098363254
-0.057401527 -0.016126351 0.010575875
0.050857894 -0.015364034 0.0097084315
-0.063034199 -0.012718529 0.0090545993
-0.062000673 -0.013084421 0.0097796014
-0.060566802 -0.01406302 0.009808301
0.050977059 -0.013495322 0.0098442808
-0.066674434 -0.01085422 0.0090491325
-0.065418735 -0.011026997 0.0094435755
-0.063895628 -0.011553452 0.0099261617
-0.06271828 -0.012266795 0.010302438
0.051461399 -0.011597074 0.0098883342
-0.066714905 -0.010626226 0.0090944795
-0.065571122 -0.010154595 0.0093959812
-0.064072706 -0.0098689646 0.0097571556
-0.06234289 -0.0097862436 0.010447149
-0.061066434 -0.0090971272 0.010736133
0.051665187 -0.0099509601 0.0096574929
-0.068926498 -0.0072315503 0.00902435
-0.067345485 -0.0072599598 0.0090552401
-0.06549789 -0.0077824197 0.0091085946
-0.063751295 -0.0079578655 0.0093163121
-0.062165607 -0.0080032665 0.0099578425
-0.060411084 -0.0078853667 0.010436215
-0.058956712 -0.0075780908 0.010652425
0.051842123 -0.0081944689 0.0099462038
0.052225798 -0.0072487202 0.0091184992
-0.068682522 -0.0067424569 0.0091077257
-0.067419015 -0.0065490259 0.0093390141
-0.065644018 -0.006489282 0.0096287988
-0.063920282 -0.00659271 0.0099491179
-0.062230203 -0.0064536501 0.010390933
-0.060338423 -0.0065005156 0.010623094
-0.058434062 -0.0068481923 0.0106944
-0.057503901 -0.0065819849 0.0107961
0.052117251 -0.0069516422 0.01039165
0.052370433 -0.006264972 0.0097732833
-0.068873756 -0.0043381811 0.0090769501
-0.067480676 -0.004486125 0.0093427775
-0.065703563 -0.0045570489 0.0097216824
-0.063885249 -0.0045221918 0.010158161
-0.062174696 -0.0044157533 0.010569686
-0.061012365 -0.0044632033 0.010768066
0.052684631 -0.0044858721 0.0098787621
-0.070409395 -0.0020305524 0.0090093492
-0.069126993 -0.002642853 0.009164094
-0.067560866 -0.0025734585 0.0094137583
-0.06578733 -0.0026781028 0.009763605
-0.063704684 -0.0027925228 0.010241215
-0.062002957 -0.0026807927 0.010624532
-0.060430046 -0.0025786231 0.010741378
-0.059159935 -0.0019494519 0.010783601
0.052986857 -0.0026391721 0.0098335044
-0.070596412 -0.00062752818 0.0090821972
-0.069446199 -0.0010506199 0.0092423568
-0.067536943 -0.00094781793 0.0095676742
-0.065677784 -0.00081518147 0.0098491712
-0.063757464 -0.00087590457 0.010172299
-0.061865173 -0.00079947326 0.01047172
-0.060438607 -0.00070255564 0.01065682
-0.05863706 -0.00070712966 0.010713084
-0.057009161 -0.00061008893 0.010751427
0.05357141 -0.0011622731 0.0097973906
0.054071818 -0.00023161797 0.01011632
-0.072062105 0.00055836601 0.0090389987
-0.071145177 0.00096325018 0.0092058377
-0.069203272 0.00096080289 0.0094840825
-0.067627273 0.0010103441 0.009696546
-0.065669887 0.00079408515 0.0098962747
-0.063968293 0.00085960981 0.010120493
-0.061932154 0.00061734376 0.01031575
-0.06015284 0.00081717898 0.010449212
-0.058655594 0.0010119841 0.010611065
-0.056935545 0.001117192 0.01065895
0.05463542 0.00088508584 0.0099398373
-0.070876211 0.0026848833 0.0092635229
-0.069267884 0.002653168 0.0095811021
-0.067666143 0.0027237795 0.0098219365
-0.065729268 0.0026861064 0.0099553382
-0.063910916 0.0027191711 0.010183217
-0.06209806 0.0027159341 0.010291431
-0.060103193 0.0025876251 0.010278216
-0.058481365 0.0026104406 0.010393322
-0.056845911 0.0029065346 0.010558036
-0.055541802 0.0033705991 0.010700973
0.055447813 0.0024480307 0.0099774115
0.05589696 0.0033386606 0.010033635
-0.070801362 0.0044763219 0.0093053235
-0.069263697 0.004577518 0.0095873969
-0.067662179 0.0044340687 0.0098879645
-0.065666042 0.0044875564 0.010070208
-0.063939221 0.0045075449 0.010218579
-0.062073983 0.0044930126 0.0102787
-0.060308482 0.0045028469 0.010335149
-0.058407616 0.0044041094 0.010423123
-0.056716941 0.0044598859 0.010586038
-0.05555585 0.0040062871 0.010711784
0.056432784 0.0045346492 0.0098668514
-0.072043002 0.00664176 0.00902755
-0.071036123 0.0064678704 0.0092360433
-0.069366783 0.0064078625 0.0096391477
-0.067574583 0.0064172586 0.0099987146
-0.065680504 0.0065876306 0.010185557
-0.063940696 0.0065568653 0.010328017
-0.062193874 0.0064049289 0.010369786
-0.060459219 0.0062575224 0.010415404
-0.058383666 0.0063533322 0.010561455
-0.056719493 0.0062535368 0.010661406
0.057219822 0.0062471395 0.009870016
0.057633549 0.0071519995 0.0100614
-0.0720421 0.0072706998 0.0090195993
-0.070977606 0.0078877034 0.0094439052
-0.069416471 0.0079339119 0.01006901
-0.067547262 0.0077068894 0.010360936
-0.06569922 0.0073744133 0.010534878
-0.063801058 0.0079207625 0.010600488
-0.062148791 0.0080597103 0.01047699
-0.060513258 0.0081263632 0.010518989
-0.05851002 0.00790965 0.010712702
-0.057293735 0.0074576326 0.010736736
0.057985414 0.0080951499 0.0097694555
-0.070686355 0.0097982036 0.0095180003
-0.069555454 0.0098098936 0.010431007
-0.068128243 0.0092537999 0.010730729
-0.063149899 0.0090021007 0.0107779
-0.061955195 0.0097772749 0.010692698
-0.060794361 0.0094754295 0.010635272
0.058771227 0.010006209 0.010027259
-0.070609733 0.011727065 0.0093362769
-0.069713652 0.011807981 0.01028896
0.059199188 0.011396888 0.0097665079
0.059684705 0.012099508 0.010249035
-0.070549175 0.013622286 0.0093465177
-0.069645301 0.013392165 0.010153609
0.060041636 0.013634024 0.009956806
-0.07076256 0.015452243 0.0095291799
-0.069569252 0.015299328 0.010368752
0.060272086 0.015156526 0.0098143853
-0.070730641 0.017089425 0.0095905708
-0.069795974 0.017148651 0.010514988
0.060123838 0.01709166 0.0099703968
-0.070485145 0.018359294 0.0092116492
-0.069521308 0.018997125 0.009979764
0.058987889 0.019277578 0.010066226
0.059623282 0.018630665 0.0097696939
-0.068769999 0.020640032 0.0098611703
-0.067931943 0.021280635 0.010522923
-0.066082396 0.021570599 0.0107515
0.055654693 0.021356972 0.010605344
0.056890294 0.020919928 0.01001821
0.058152713 0.020240273 0.0095404275
-0.068491355 0.021799169 0.00927974
-0.067543015 0.022236573 0.0099493079
-0.065826096 0.022493195 0.010255156
-0.063939013 0.022767246 0.010426191
-0.062342811 0.023023812 0.010592201
-0.061166901 0.023354599 0.0107806
0.053950299 0.023351599 0.010652499
0.055167358 0.022591952 0.010277289
0.056397606 0.022352993 0.0094860187
-0.066911563 0.023622487 0.0092088124
-0.065514416 0.024189169 0.0093684411
-0.063917369 0.024291037 0.0096536139
-0.062085506 0.024316868 0.010075857
-0.06088889 0.024474934 0.010498797
0.052017998 0.025102124 0.01073685
0.0532654 0.024560075 0.010354611
0.054801788 0.024275308 0.0095289266
0.055938851 0.023636825 0.0090760253
-0.06351421 0.025627546 0.0091420989
-0.062020309 0.026154196 0.0094682183
-0.060616989 0.026333656 0.01014475
-0.059328999 0.026944699 0.010750899
0.048282929 0.026925618 0.010477809
0.049432945 0.026692431 0.0099930177
0.051307246 0.026199436 0.0099323243
0.052987296 0.025817778 0.0095617706
0.054227114 0.025440624 0.0091635659
-0.061457768 0.027076714 0.0091764499
-0.060368501 0.027172767 0.009427527
-0.058348835 0.027389504 0.0098889312
-0.056606214 0.027462553 0.010231327
-0.055136763 0.027677463 0.010363513
-0.053231575 0.02827042 0.0099340416
-0.051322844 0.028517907 0.010036097
-0.049774535 0.028600056 0.010441313
0.040891182 0.028562278 0.010276143
0.042333681 0.028122228 0.0099253645
0.044118546 0.027886052 0.0098959161
0.045827363 0.027520342 0.0099736666
0.047622852 0.027359759 0.009853391
0.049004812 0.027113782 0.0092061954
-0.052562252 0.028809249 0.0090315491
-0.051112279 0.029035006 0.0092886323
-0.049362335 0.029235093 0.0095941424
-0.047540724 0.029525267 0.0097535821
-0.045959208 0.029838523 0.0099152466
-0.044172548 0.02971953 0.0098625673
-0.042320985 0.029989319 0.010015967
-0.040936477 0.03047346 0.010345224
-0.030963173 0.030492323 0.010486122
-0.029692536 0.030259157 0.0099281752
-0.027714344 0.03007175 0.0098222159
-0.026774172 0.030340705 0.0097673554
-0.022284638 0.030418817 0.010366684
-0.020091696 0.030304808 0.010405758
-0.019295638 0.030344138 0.0099885873
-0.01662224 0.030181162 0.010159221
-0.015459705 0.030231409 0.01006125
-0.013768383 0.030137278 0.010312732
0.00052768784 0.030531859 0.010720307
0.0032050726 0.030535936 0.010711272
0.0048271599 0.030432958 0.010415557
0.0061039613 0.030392738 0.010363099
0.0078037819 0.03047812 0.010445523
0.010221238 0.030584374 0.0097183995
0.013856297 0.030476933 0.0097571155
0.014874409 0.03056556 0.0096658254
0.016765121 0.03055159 0.0091255708
0.022725603 0.03047779 0.0097566424
0.024362717 0.030241283 0.0099401679
0.026034061 0.030139636 0.0099599902
0.02785431 0.029855411 0.0099159954
0.029725682 0.029701309 0.010029444
0.031475842 0.029627582 0.0099294139
0.033275548 0.029876705 0.009828358
0.03501381 0.029844122 0.010010663
0.036807738 0.029698759 0.0099810716
0.038715072 0.029361496 0.0099151097
0.040298987 0.028973412 0.0097029898
-0.041489203 0.0307137 0.0092059998
-0.040370472 0.03090727 0.0097504305
-0.038672015 0.031360827 0.0097972285
-0.036961123 0.031539679 0.010100183
-0.035103992 0.031696174 0.009781505
-0.03344525 0.031285286 0.0098449942
-0.031373397 0.031079967 0.0095416363
-0.029807761 0.03085894 0.0092934426
-0.026061146 0.03078999 0.0097088534
-0.024491671 0.030976297 0.0099056419
-0.022447087 0.03084497 0.0096755093
-0.020783454 0.030871879 0.009788638
-0.018648276 0.030775916 0.0096938778
-0.017457735 0.030698081 0.0098189469
-0.015228784 0.030698484 0.0090749878
-0.013210244 0.030849339 0.0096139368
-0.011633045 0.031025045 0.0099798106
-0.0098183611 0.031232689 0.0099835219
-0.0082054837 0.031318836 0.0098116789
-0.0063921288 0.031354859 0.0096792448
-0.0044612973 0.031245593 0.0098623913
-0.0026238137 0.031318996 0.0097716246
-0.00088304543 0.031083599 0.009864714
0.00084998191 0.030997876 0.0099975029
0.0027014497 0.031023078 0.0099038985
0.0044156653 0.030973487 0.009647198
0.006328057 0.030860331 0.009497541
0.0080910567 0.030895468 0.0098199425
0.0099008353 0.030903663 0.0099790571
0.011592153 0.030967392 0.0097109294
0.013344569 0.030807471 0.009948642
0.01527297 0.030751836 0.0098620849
0.017155435 0.030761195 0.009918808
0.018831173 0.030919932 0.0097922022
0.020606134 0.030851889 0.0097333454
0.022282917 0.03068432 0.00955211
0.023912249 0.030660333 0.009183364
0.032059833 -0.034305565 0.010902184
0.033376772 -0.034443673 0.011263295
0.035065196 -0.034509789 0.011363029
0.037028421 -0.034592062 0.011708585
0.03876261 -0.034569915 0.011495417
0.040347278 -0.034346156 0.011045177
0.02664054 -0.032619108 0.011165916
0.02773663 -0.032672919 0.011349519
0.029948778 -0.032987274 0.011620481
0.031334046 -0.033488575 0.011760344
0.033216845 -0.033838857 0.012148938
0.034905046 -0.033991586 0.012309037
0.036701147 -0.034127764 0.012513709
0.038748693 -0.033880334 0.012331495
0.04060626 -0.033689663 0.01189212
0.042248346 -0.033351693 0.011668026
0.044130031 -0.033146251 0.011631346
0.045704927 -0.03290236 0.011301963
0.047050826 -0.032547254 0.011077786
0.019363567 -0.030720513 0.011738791
0.020726411 -0.031093918 0.011561036
0.022485465 -0.031210437 0.011732472
0.024193639 -0.031705014 0.011660243
0.025946893 -0.032089349 0.011795158
0.027480286 -0.03227511 0.012238854
0.044423349 -0.032283194 0.012347483
0.045985948 -0.032085154 0.012094372
0.047787447 -0.031516373 0.011744804
0.048705101 -0.030799065 0.011386259
-0.023696925 -0.028835412 0.0111766
-0.022715203 -0.028867582 0.011428398
-0.020491961 -0.028901661 0.011555876
-0.01900647 -0.028967576 0.011634912
-0.017085085 -0.029177004 0.011679983
-0.015402841 -0.029070823 0.011780577
-0.013790375 -0.028944148 0.011232863
-0.012451049 -0.0288375 0.010863349
0.010158872 -0.028926654 0.011538141
0.011715481 -0.029362878 0.011583925
0.01353308 -0.02989945 0.011712085
0.015235121 -0.030293979 0.011703613
0.017104819 -0.030331932 0.01172436
0.018592743 -0.030418687 0.011661233
0.04938902 -0.029809766 0.011645352
-0.031301528 -0.027203072 0.011565015
-0.029676748 -0.02751812 0.011635996
-0.027910622 -0.028017052 0.011633242
-0.02619479 -0.028389616 0.01166149
-0.02444019 -0.028630679 0.011847538
-0.022508929 -0.02873335 0.012172298
-0.020968698 -0.028667537 0.012221211
-0.0146905 -0.028764501 0.012430649
-0.013341947 -0.028539475 0.011865874
-0.011652071 -0.028362649 0.011681148
-0.0098001594 -0.027582567 0.011816961
-0.0082084667 -0.027462199 0.011595227
-0.0063817822 -0.027390288 0.011409436
-0.0047403504 -0.027148917 0.011149989
-0.0026691318 -0.027247127 0.01164226
-0.00075514021 -0.027398249 0.011726512
0.00091614027 -0.027662808 0.011749114
0.0026213876 -0.027956601 0.011775925
0.0045724288 -0.028005581 0.01185046
0.0062170373 -0.02811875 0.011644333
0.008164322 -0.028466914 0.011743856
0.0093386304 -0.028690368 0.011854354
0.050112057 -0.027919609 0.011664618
0.0504179 -0.027196219 0.011051951
-0.043454647 -0.025265101 0.011140237
-0.04220802 -0.025418554 0.011509859
-0.040656734 -0.025398824 0.011626428
-0.038253855 -0.025322806 0.011117446
-0.036808167 -0.025432548 0.011524924
-0.035223141 -0.025729194 0.011600616
-0.033453193 -0.026323967 0.011792311
-0.032031339 -0.026829073 0.011967175
-0.0058196848 -0.026889838 0.012367423
-0.0043891561 -0.026798666 0.011700708
-0.0032342018 -0.026868956 0.012288815
0.050220281 -0.026143732 0.012138808
0.050625272 -0.025911037 0.011218005
-0.049165081 -0.02368151 0.011548991
-0.047794674 -0.024182936 0.011796193
-0.045734469 -0.024765352 0.011646066
-0.044322364 -0.024989605 0.011704078
-0.042443294 -0.025104722 0.012399749
-0.040401276 -0.025108393 0.012373759
-0.038645815 -0.024999494 0.011877801
-0.036924295 -0.025120588 0.011706937
-0.035987601 -0.025176901 0.0116516
0.048470862 -0.023624411 0.012050893
0.049489763 -0.02431893 0.012116802
0.05085855 -0.024378771 0.011440995
-0.050646171 -0.022371473 0.011200732
-0.049834408 -0.022759886 0.011890461
-0.048514538 -0.023313535 0.012539334
0.048028681 -0.022427641 0.011641635
0.049524043 -0.022681881 0.011237253
0.05101439 -0.022813736 0.011125845
-0.050599679 -0.020670673 0.011186633
-0.050023802 -0.020371385 0.011829849
0.047863059 -0.020771846 0.011635262
-0.054190099 -0.018004101 0.010846299
-0.052891094 -0.018452322 0.011524356
-0.051486254 -0.019278049 0.011494174
-0.050161574 -0.019714558 0.012321773
0.048241258 -0.019308178 0.011813649
0.049330246 -0.018594429 0.011565714
0.050456453 -0.018076831 0.0110954
-0.056371886 -0.01652565 0.011649631
-0.054910079 -0.017170701 0.012077299
-0.053780112 -0.017784024 0.012084259
0.050102599 -0.017302927 0.012091229
0.050529748 -0.017122442 0.011189463
-0.05950987 -0.014465399 0.011040768
-0.058364358 -0.015008346 0.011774415
-0.057001106 -0.015809713 0.012101104
-0.054925151 -0.015039708 0.01202498
-0.053104721 -0.015088392 0.011985342
-0.051396921 -0.014851462 0.01217966
-0.049324509 -0.01465325 0.012339585
-0.04825455 -0.01469399 0.01248001
0.050253637 -0.015398841 0.012203093
0.050542612 -0.015334477 0.01146429
-0.061364468 -0.012762151 0.011504757
-0.060248628 -0.013337283 0.011973049
-0.058929767 -0.013584454 0.012286698
-0.054939367 -0.013552808 0.012236601
-0.053001959 -0.013508763 0.012281834
-0.051285692 -0.013503619 0.012341993
-0.049678814 -0.013871934 0.012293445
0.050336149 -0.0140537 0.01248535
0.050646532 -0.013431655 0.011643826
-0.063107952 -0.011580966 0.010893799
-0.062118288 -0.012097285 0.011442784
-0.060422685 -0.011872138 0.012238124
-0.058491096 -0.011644889 0.012391478
-0.056540731 -0.011711608 0.012444378
-0.054985508 -0.011735356 0.012342877
-0.052876305 -0.011951447 0.012465824
-0.05148565 -0.011696139 0.012429802
-0.050298076 -0.012284666 0.012530774
0.051096797 -0.011705441 0.011699502
-0.06158407 -0.010285636 0.011047221
-0.060304027 -0.0099158511 0.011384086
-0.058396928 -0.0097948201 0.011631749
-0.05672662 -0.0098067941 0.011685007
-0.054828253 -0.0099366978 0.01199186
-0.053012554 -0.0099910023 0.012300568
-0.051655617 -0.010080282 0.01243361
0.051425409 -0.0098724701 0.01162743
-0.059844632 -0.008625309 0.01092029
-0.058168143 -0.0081624761 0.011018042
-0.056885283 -0.0080542453 0.011309858
-0.055031423 -0.0080710547 0.011608644
-0.053169847 -0.0080909198 0.012012053
-0.051352307 -0.0080201784 0.012384065
-0.0501647 -0.0075592976 0.01258335
0.051594187 -0.0082291355 0.011820903
-0.059809141 -0.0056810933 0.010844821
-0.05828141 -0.006140633 0.010884548
-0.056699172 -0.0063841217 0.010960027
-0.055068728 -0.0061717159 0.011252993
-0.053122032 -0.0061699385 0.011749928
-0.0512003 -0.0062738885 0.012202789
-0.049818501 -0.006050644 0.012475765
0.05206079 -0.00672783 0.011896122
0.052322891 -0.0059311683 0.01160985
-0.060095932 -0.0044664969 0.010894735
-0.058417026 -0.0044864491 0.011051475
-0.056693669 -0.0045818016 0.011247844
-0.054850373 -0.0045938678 0.011386222
-0.053207885 -0.0044536549 0.011577534
-0.051249094 -0.0045453776 0.011984895
-0.049654931 -0.0043497239 0.012399437
-0.048549838 -0.0045903306 0.012587733
0.05263621 -0.0045365416 0.011798275
-0.059732508 -0.0031734377 0.010861217
-0.058531202 -0.0028478203 0.01093478
-0.056750175 -0.0027666464 0.01109028
-0.054897316 -0.0026660797 0.01132065
-0.053086113 -0.002594868 0.011592581
-0.051340152 -0.0026248372 0.011973358
-0.049448628 -0.0024498035 0.012380971
-0.048178777 -0.0020707096 0.012521636
0.053047966 -0.0026688324 0.011694683
-0.057938702 -0.0015928734 0.010804666
-0.05642195 -0.001242294 0.010886583
-0.054825265 -0.0008113822 0.011101359
-0.053047989 -0.00081222272 0.011565345
-0.051231109 -0.00092026388 0.011910037
-0.049401008 -0.00096959947 0.012150208
-0.047820073 -0.00085044937 0.012386967
-0.046747752 -0.00020625 0.01259225
0.053708851 -0.0011749683 0.011762002
0.054159082 -0.0003012165 0.011896591
-0.055905469 0.0012197983 0.010809399
-0.054704145 0.00095606578 0.01104498
-0.053150363 0.00093712885 0.011597421
-0.051341657 0.00090707839 0.011786727
-0.049535483 0.00092036673 0.011951058
-0.047594395 0.00078788609 0.012402405
0.054771479 0.00085710111 0.011661442
-0.056046534 0.0024253384 0.010869661
-0.054711778 0.0029008903 0.011114112
-0.053107135 0.0028599361 0.011403709
-0.051286355 0.0028257433 0.011623248
-0.049505156 0.0028160443 0.011923493
-0.048016813 0.0026317062 0.012389607
0.05555046 0.0023213921 0.011624867
0.056010131 0.0031559058 0.011876671
-0.055865277 0.0044380622 0.010812324
-0.054924488 0.0043748124 0.011089135
-0.053086571 0.0044119391 0.011755423
-0.051327791 0.0045068176 0.012323534
-0.049606893 0.004162557 0.012467918
-0.048495799 0.003763295 0.01248035
0.056671523 0.004495943 0.011803734
-0.05611119 0.0068271896 0.010876291
-0.054910336 0.0063494113 0.011395047
-0.053245809 0.0063049193 0.012018687
-0.051233377 0.006175451 0.012391781
-0.049767144 0.0063557387 0.012533743
0.05739795 0.0059823776 0.011784207
0.057736088 0.0067825206 0.011903996
-0.067046829 0.0083741108 0.010914138
-0.065687343 0.0081014661 0.011064678
-0.064436249 0.0086580431 0.010880654
-0.059740882 0.0088105099 0.010848738
-0.058120657 0.0086408127 0.010847839
-0.05658219 0.0081383167 0.011068801
-0.054888006 0.0080610234 0.011645541
-0.053122271 0.0080141295 0.012147084
-0.051413752 0.008222959 0.012359505
-0.050014589 0.0079905475 0.012520676
0.058146313 0.008134298 0.011834013
-0.068793684 0.010453638 0.010880525
-0.067316175 0.0098580113 0.011172065
-0.065649383 0.009908244 0.011513952
-0.063913904 0.0098577375 0.011116795
-0.062306121 0.01057784 0.010890462
-0.059970755 0.010001722 0.011033208
-0.058373965 0.0099492483 0.011211257
-0.056749593 0.0099231759 0.011517991
-0.054896317 0.0099453228 0.012079599
-0.053300984 0.0099435523 0.012379292
-0.051197555 0.0096397577 0.012439019
-0.050266836 0.0095004048 0.012528395
0.058658719 0.0099817114 0.011875853
-0.068746649 0.01166306 0.011046308
-0.06740693 0.01169331 0.011581408
-0.065657914 0.011730587 0.011735209
-0.063871719 0.011771948 0.011414941
-0.061997 0.011690545 0.011187779
-0.060324829 0.011748173 0.011351989
-0.058473002 0.011622695 0.011719897
-0.056697652 0.011651457 0.011991357
-0.055099372 0.011607258 0.012385973
-0.053457577 0.011437707 0.012516849
0.058883626 0.011570135 0.012413691
0.059580281 0.01167712 0.011423601
-0.068602815 0.013458577 0.011016225
-0.06752447 0.01348278 0.011777841
-0.065481424 0.013471561 0.011880001
-0.063839838 0.013540734 0.011789036
-0.062011369 0.013515853 0.01190533
-0.060264904 0.013451244 0.011943247
-0.058486823 0.013496112 0.012279946
-0.056738939 0.013286022 0.012454803
-0.055313502 0.012707794 0.012538072
0.059201028 0.013373787 0.012486381
0.059772167 0.013359464 0.011523
-0.068761379 0.015606201 0.011034569
-0.067568213 0.01526475 0.011868329
-0.06570521 0.015194112 0.011988322
-0.063766778 0.015145865 0.012008908
-0.06205909 0.015274222 0.01219949
-0.060352102 0.015294155 0.012372487
-0.058643673 0.015275916 0.012445155
-0.057172224 0.014706432 0.012528752
0.059171867 0.015538763 0.01224333
0.05975173 0.015443546 0.011295603
-0.068833686 0.017128233 0.01110869
-0.067523092 0.017093485 0.011806033
-0.065758854 0.017207233 0.012144532
-0.063766293 0.017186694 0.012254025
-0.062177151 0.01687918 0.012431148
-0.060318917 0.016482264 0.012533907
-0.058821902 0.016300384 0.012579067
0.058893546 0.017174492 0.011890749
0.059616603 0.016996641 0.01106222
-0.068728335 0.018849913 0.011023942
-0.067561217 0.019032098 0.011473854
-0.065707073 0.019053625 0.011947295
-0.063833691 0.018908523 0.012267857
-0.062354736 0.018867623 0.012492133
-0.061154399 0.019709999 0.012571399
0.05720083 0.019429803 0.012165773
0.058390703 0.018860912 0.011594644
-0.068449326 0.019999349 0.010874175
-0.067491084 0.020634674 0.011065463
-0.065710858 0.020581799 0.011369596
-0.063818112 0.020622326 0.011744939
-0.062169768 0.020754967 0.012067368
-0.060867604 0.021016579 0.012432484
0.051983155 0.021546211 0.012480744
0.053219881 0.021371908 0.012117702
0.054972779 0.021068031 0.011682172
0.056494784 0.020376001 0.011610813
0.057621747 0.0198448 0.011314799
-0.065182552 0.021633999 0.0108429
-0.063708559 0.021890439 0.010949682
-0.061913118 0.02224106 0.011169801
-0.06034904 0.022517711 0.011837684
-0.059253979 0.022718709 0.012470621
0.049717862 0.022915872 0.012330201
0.051446911 0.022504188 0.012103946
0.052994747 0.022327999 0.011496818
0.054533586 0.021956246 0.011026354
-0.060164709 0.024232412 0.011579028
-0.059319802 0.024501899 0.012526822
0.040928107 0.025020169 0.012520486
0.042217255 0.025069898 0.01253654
0.044070005 0.025063097 0.012462527
0.0455993 0.025130276 0.012578925
0.048086584 0.024972854 0.012496574
0.049576942 0.024342239 0.012078766
0.051322989 0.024396917 0.011412262
0.052646171 0.023922686 0.01105533
-0.059880931 0.026021861 0.011443767
-0.058588263 0.026301024 0.01191075
-0.056671299 0.026512947 0.0118846
-0.055051342 0.026849607 0.011594582
-0.053810928 0.026908793 0.012151069
0.040708732 0.02628471 0.012167002
0.042386893 0.02612702 0.011955905
0.04406964 0.026166482 0.011932003
0.045854092 0.026506027 0.011764897
0.047620766 0.026322251 0.011600276
0.049437031 0.025975423 0.011311224
0.050805893 0.025540896 0.010998582
-0.058054894 0.027085885 0.011009363
-0.056735329 0.027072085 0.010950175
-0.054770596 0.027222225 0.011039034
-0.053332105 0.027403833 0.011717591
-0.051315732 0.027797341 0.011762291
-0.049583126 0.028113781 0.01166825
-0.047722649 0.028492523 0.011747525
-0.046184268 0.028646071 0.01218453
0.035591789 0.028681898 0.012527349
0.036885668 0.028530495 0.012369906
0.038971454 0.028260991 0.011899089
0.040474512 0.027906766 0.011513347
0.042309765 0.027504504 0.01117389
0.04397032 0.027281163 0.01129321
0.045903549 0.027076917 0.010992389
-0.047262888 0.028927699 0.010995361
-0.045798764 0.029196652 0.011335391
-0.044150144 0.029234678 0.011757432
-0.042344302 0.029324822 0.011673256
-0.040383559 0.030003173 0.011750136
-0.038915746 0.030438449 0.012173058
-0.036595754 0.030492755 0.012103439
-0.035338581 0.030473515 0.012231194
-0.033245485 0.030446989 0.012191967
-0.031477112 0.03039242 0.011753922
-0.029600903 0.030263836 0.011728411
-0.028017368 0.030247539 0.011567042
-0.026106561 0.03026706 0.011768806
-0.024296792 0.030384639 0.011868299
-0.022479238 0.030299367 0.011783444
-0.020674184 0.030115521 0.011754079
-0.018874791 0.030162293 0.011601568
-0.017036557 0.03015165 0.011699809
-0.015391327 0.030079206 0.011694548
-0.01353337 0.029898727 0.011619434
-0.011544214 0.030341016 0.01176874
-0.010510879 0.030357707 0.012028058
-0.0038081568 0.030432599 0.012437205
-0.0028569398 0.030545475 0.012404425
-0.00071236741 0.030222381 0.012054869
0.00072880229 0.030192407 0.011599801
0.0027099755 0.03007233 0.011738866
0.0045360443 0.030003585 0.011757887
0.0062997895 0.03008249 0.011757659
0.0079686455 0.030279094 0.011768189
0.016726799 0.030593898 0.012571299
0.019573167 0.030508649 0.012401693
0.020961924 0.030470554 0.012109124
0.022301089 0.030347032 0.011726449
0.024404066 0.029877963 0.011608207
0.026158106 0.029617401 0.011576852
0.027863195 0.029481411 0.011743004
0.029653963 0.029394193 0.011694037
0.031557161 0.029286647 0.011656974
0.033266108 0.029361803 0.011742464
0.035234276 0.029211018 0.011798007
0.036837991 0.029214216 0.011462984
0.038533006 0.029012311 0.011160186
0.039696749 0.028820898 0.010875549
-0.039798729 0.030793047 0.0110439
-0.038591139 0.030894386 0.011339205
-0.037030343 0.030917792 0.011217399
-0.035053272 0.030930085 0.011439904
-0.033472233 0.030774543 0.011337854
-0.032089088 0.030705556 0.011060228
-0.025328301 0.030629173 0.0108793
-0.024214132 0.030706171 0.011025735
-0.022186831 0.030644238 0.011161193
-0.021249074 0.030691303 0.011161343
-0.01826581 0.030742563 0.010919843
-0.017801143 0.030691098 0.010900283
-0.012776263 0.030774999 0.010994758
-0.012134704 0.030703165 0.011113097
-0.0098498818 0.030960038 0.011652933
-0.008192881 0.031057864 0.011821944
-0.0063013299 0.031031469 0.011709317
-0.0045653293 0.030946083 0.011723903
-0.0027148388 0.03080873 0.011770794
-0.0011075247 0.03073089 0.01131596
0.0011378545 0.030613123 0.01084664
0.001957315 0.0306361 0.010826699
0.0088072466 0.030754948 0.011585389
0.0098845875 0.031002952 0.011740422
0.0117351 0.030937092 0.011775474
0.013589582 0.030873697 0.011633228
0.015291404 0.030799825 0.011517256
0.017036805 0.030772213 0.011437234
0.019061456 0.030784855 0.011474159
0.020358397 0.030725952 0.011251103
0.029707566 -0.032428335 0.012669733
0.031741299 -0.032757293 0.013394535
0.033252873 -0.032952912 0.0136051
0.035105553 -0.033165205 0.013598782
0.037066821 -0.033325508 0.013619646
0.038577218 -0.03314922 0.013412568
0.040364873 -0.032899749 0.013334624
0.042186022 -0.032623596 0.012878775
0.018788179 -0.03064245 0.01300047
0.020980278 -0.030748894 0.012993936
0.022645885 -0.030973518 0.013335178
0.024163077 -0.031219071 0.013260124
0.026159186 -0.031543713 0.013425793
0.027951304 -0.031863246 0.013481988
0.029662756 -0.032074049 0.013505744
0.031219231 -0.032290746 0.013989346
0.032553099 -0.032364599 0.01438015
0.04115995 -0.032066941 0.014037218
0.042294521 -0.031928737 0.013762184
0.044067681 -0.031665955 0.01361978
0.045832593 -0.031207057 0.013406093
0.047474682 -0.030899405 0.013109063
-0.019903788 -0.028823715 0.012939339
-0.019134302 -0.028844541 0.013129869
-0.017279344 -0.028872825 0.013099956
-0.015871886 -0.028847253 0.012790566
0.010352741 -0.028852046 0.012791578
0.011995211 -0.028874056 0.013506446
0.013549201 -0.02918761 0.013442433
0.015332598 -0.029769735 0.013352599
0.017189456 -0.030278316 0.013372242
0.01886504 -0.03049643 0.013740592
0.020518202 -0.030405004 0.013868392
0.021789972 -0.030509304 0.014112355
0.046634018 -0.030559039 0.014190433
0.047959607 -0.029884867 0.013833106
0.048826825 -0.02931991 0.013434791
-0.030929031 -0.027041901 0.012828914
-0.029697733 -0.027254637 0.013464453
-0.027859185 -0.02773216 0.013544871
-0.026171584 -0.028008018 0.013652694
-0.024293313 -0.028333467 0.013510925
-0.022333303 -0.0285675 0.01351891
-0.020687269 -0.028573113 0.013572243
-0.01905223 -0.028729208 0.013868171
-0.016981576 -0.028679734 0.013918769
-0.015179076 -0.028602378 0.013538172
-0.013397731 -0.02833667 0.013753815
-0.01150954 -0.027675282 0.01379038
-0.010131458 -0.027375098 0.01342735
-0.0083781891 -0.027199818 0.013058577
-0.0071381899 -0.027010301 0.0126004
-0.0020981198 -0.027026802 0.012669332
-0.00055779569 -0.027139982 0.01319494
0.00095556874 -0.027466772 0.013437726
0.0025957008 -0.027711596 0.01351951
0.0044270465 -0.028046228 0.01352328
0.0063270563 -0.028355945 0.013467197
0.0081749875 -0.028440354 0.013415963
0.0097743133 -0.028622309 0.013572802
0.011288279 -0.028774258 0.013662214
0.049220596 -0.028085675 0.013794075
-0.036404774 -0.025417758 0.013329149
-0.03530971 -0.025564799 0.013489039
-0.033074934 -0.025843168 0.013237161
-0.03173032 -0.026512193 0.013610405
-0.030311015 -0.026886465 0.014025165
-0.010833701 -0.026887801 0.014346184
-0.0097509259 -0.026811842 0.014125544
-0.0079611316 -0.026712118 0.01379305
-0.0062343869 -0.026464922 0.013546
-0.0046388488 -0.026454782 0.013346617
-0.0025655192 -0.026667407 0.013515876
-0.0012287799 -0.026871841 0.013824134
0.048568692 -0.025434002 0.013974415
0.049351513 -0.026117936 0.013655768
-0.047343738 -0.023670316 0.013041005
-0.045929823 -0.02388107 0.013320015
-0.043964989 -0.024056677 0.013534838
-0.042276874 -0.024524899 0.013568148
-0.040525477 -0.024908546 0.013392465
-0.038662124 -0.024941418 0.013551664
-0.037128579 -0.025021406 0.013662922
-0.035593316 -0.025132094 0.014258954
0.048501607 -0.02401156 0.013265375
0.048839275 -0.024546316 0.013459654
-0.049186237 -0.02207239 0.012976182
-0.047772221 -0.022671172 0.013583951
-0.046015263 -0.022932326 0.014105503
-0.044446267 -0.023176219 0.01424932
0.048310153 -0.022460967 0.01336043
0.048652116 -0.022888217 0.01421342
-0.049310274 -0.020639405 0.013474759
-0.048212416 -0.021185664 0.014243179
0.048063159 -0.020722339 0.013418335
-0.052450072 -0.018121978 0.013187263
-0.051250611 -0.018480925 0.013784062
-0.049924091 -0.019125206 0.01406655
0.048125185 -0.018922981 0.013546444
0.048978455 -0.018198995 0.013215069
-0.055855449 -0.016239149 0.01260115
-0.05481907 -0.016717305 0.012821451
-0.052995715 -0.017471803 0.013214686
-0.051505756 -0.017283857 0.013503003
-0.049387343 -0.017082807 0.013757409
-0.047710918 -0.016842825 0.013947222
-0.046246856 -0.01650439 0.014204287
0.049366642 -0.017152147 0.013595044
-0.05801164 -0.014656891 0.012853421
-0.056611225 -0.015052814 0.013160862
-0.055393677 -0.015399032 0.013086292
-0.052651551 -0.016138449 0.012615649
-0.051002406 -0.015841948 0.012792223
-0.049416393 -0.015595841 0.012906487
-0.047470819 -0.015204762 0.013022281
-0.045903366 -0.015097582 0.013440453
-0.044174343 -0.014899681 0.013732
-0.042314842 -0.014776747 0.014128925
0.050012387 -0.015323823 0.013577607
-0.059546448 -0.012918689 0.012628425
-0.058449898 -0.013570335 0.012833187
-0.056705542 -0.013599108 0.012990326
-0.055520251 -0.013602628 0.01286586
-0.04896583 -0.013077821 0.012754668
-0.04755377 -0.013487153 0.013176157
-0.045958016 -0.013564948 0.013623251
-0.044097852 -0.013646949 0.013936224
-0.042395812 -0.01343918 0.014318113
-0.041006777 -0.01270867 0.014367909
0.05021248 -0.013532753 0.013577072
0.050432328 -0.012794255 0.01296886
-0.059669822 -0.012391671 0.012652265
-0.058404494 -0.01223655 0.012692822
-0.057219017 -0.012202285 0.012646552
-0.055666227 -0.012518313 0.012620499
-0.052617297 -0.011411415 0.012742411
-0.050645299 -0.011066905 0.012634075
-0.049417496 -0.011746267 0.012877502
-0.047581106 -0.011759072 0.013386684
-0.04597472 -0.011725847 0.013801986
-0.043990128 -0.011821743 0.014221379
-0.042101201 -0.011892756 0.014311247
-0.040745836 -0.011798971 0.014320798
0.050270796 -0.012382779 0.014237386
0.050732698 -0.011758077 0.013519185
-0.052735835 -0.010643923 0.012694712
-0.050637681 -0.009949604 0.012654381
-0.049506988 -0.0099273892 0.012929914
-0.047572643 -0.0099817347 0.013410927
-0.04584961 -0.0098836841 0.01382308
-0.044116378 -0.0098915091 0.014147494
-0.04244582 -0.009759875 0.014337831
-0.040455956 -0.0096459072 0.014337993
0.051277097 -0.0098350709 0.013675813
-0.049429804 -0.008041827 0.012795043
-0.047622349 -0.0080704968 0.013232755
-0.045935091 -0.0080983778 0.013655123
-0.044128574 -0.0080932286 0.013995901
-0.042293224 -0.0081300987 0.014283949
-0.040724505 -0.0084144287 0.014363761
0.051596727 -0.0080929985 0.013649964
-0.048948679 -0.0063777384 0.012711366
-0.047658794 -0.0061716628 0.012995114
-0.045798156 -0.0062079164 0.01342895
-0.044047523 -0.0062545529 0.013835968
-0.04240663 -0.0061018001 0.014178718
-0.041209735 -0.0065503158 0.014348662
0.051972087 -0.0065913517 0.013746855
0.052341893 -0.0056730742 0.013459163
-0.048830219 -0.0040058657 0.012626315
-0.047619935 -0.0044647064 0.012840446
-0.045924488 -0.0045273169 0.013191129
-0.044130664 -0.0045768684 0.013567984
-0.042333692 -0.004648074 0.013990866
0.052812643 -0.0044732071 0.013613338
-0.048774067 -0.0033721803 0.012656299
-0.04758624 -0.0026815473 0.012742084
-0.045955822 -0.0026551792 0.01296561
-0.043783605 -0.0024654365 0.01342621
-0.042895809 -0.0030712036 0.013788586
0.053211987 -0.0028143171 0.013507294
-0.047055654 -0.0015275046 0.012626722
-0.045911666 -0.00085851102 0.012780581
-0.04416104 -0.0008110209 0.013353021
0.053701408 -0.0014076253 0.013374824
0.054234166 -0.00040911263 0.013523402
-0.046951625 0.00152957 0.012611775
-0.045591801 0.0010831988 0.013161303
-0.044747319 0.00043772356 0.013384411
0.054962277 0.00085730082 0.013564599
-0.047188044 0.0029388296 0.012760676
-0.046019875 0.0026286123 0.013261692
0.055618558 0.0020527889 0.013414003
0.056155793 0.0030157219 0.013616358
-0.0504006 0.0044674003 0.012619699
-0.04932417 0.0046811635 0.012761545
-0.047681428 0.004578976 0.012996987
-0.046542078 0.0044907755 0.0135295
0.056824367 0.0045878408 0.013525368
-0.048971895 0.0062660831 0.012695338
-0.047542039 0.0064253481 0.013173678
-0.04662266 0.0058598984 0.013701247
0.057090208 0.0064302832 0.013718963
0.05766267 0.0068463571 0.012878161
-0.049115621 0.0082351584 0.012819536
-0.047659166 0.0080801314 0.013631098
0.055042297 0.0084252683 0.014023495
0.056730159 0.0080775041 0.013346175
0.057681646 0.0079550613 0.012759788
-0.05260874 0.010672665 0.012652101
-0.051230915 0.010614086 0.012692876
-0.049338114 0.010054088 0.013237921
-0.048245061 0.009189208 0.013956215
0.053832013 0.010002007 0.014232237
0.054660406 0.0098660886 0.013867274
0.056734663 0.0098523861 0.013192357
0.05784075 0.010301405 0.012697055
-0.054407563 0.012117839 0.012638226
-0.052819874 0.011863098 0.012734878
-0.051344343 0.011736339 0.013169329
-0.049715944 0.011500358 0.013679273
0.053701382 0.011647643 0.014133706
0.054628517 0.011501086 0.013787988
0.056790985 0.011640869 0.013317662
0.05823962 0.011907045 0.012848161
-0.056189645 0.013790541 0.012665917
-0.054787077 0.013511615 0.012757653
-0.053104863 0.013472711 0.013021916
-0.051168576 0.013634072 0.013806687
-0.05024064 0.013048541 0.014183952
0.053279672 0.01336552 0.014134658
0.054963313 0.013500758 0.013748795
0.056874156 0.013483386 0.013603659
0.05838139 0.013516613 0.012996965
-0.057973664 0.016022563 0.012627537
-0.056596898 0.015383103 0.012715697
-0.054846317 0.015226915 0.012998908
-0.053056993 0.015115954 0.013451868
-0.051540487 0.01514461 0.013951651
0.053373609 0.015296835 0.014201327
0.054906983 0.015361496 0.013900711
0.056726974 0.015395056 0.013852652
0.058374099 0.015300368 0.013236285
-0.061336022 0.017188922 0.012629543
-0.06034188 0.017293796 0.012705093
-0.058452431 0.01716627 0.012879807
-0.056761034 0.017287575 0.013073418
-0.054845598 0.017344108 0.013416565
-0.053222276 0.017240267 0.013907644
-0.051805887 0.016892739 0.014235763
0.053174112 0.017061513 0.014181392
0.055019509 0.01710584 0.013855265
0.056549363 0.017027017 0.013706025
0.058115076 0.017045807 0.013031419
-0.061415561 0.018650576 0.012660132
-0.060245421 0.018798785 0.012835841
-0.058592524 0.018844888 0.013210338
-0.056560319 0.018861677 0.013552553
-0.054975063 0.018738676 0.013891131
-0.053299546 0.018518882 0.014210348
-0.052055378 0.018151775 0.014323557
0.051737003 0.019270469 0.014296502
0.053047892 0.018987337 0.013993089
0.05497646 0.018979501 0.013614465
0.056562018 0.018789954 0.013225903
0.057765473 0.018305957 0.012799743
-0.060075805 0.020712206 0.012866603
-0.058720298 0.020782029 0.013278245
-0.056509875 0.020658797 0.0140484
-0.05494066 0.021229675 0.014290921
0.048554298 0.021425223 0.014301062
0.049693741 0.020950943 0.014015587
0.051321268 0.020713208 0.013703604
0.053030964 0.020474769 0.013522195
0.054828472 0.020264229 0.013105167
0.056041434 0.020025238 0.01280265
-0.059674717 0.02176067 0.012706594
-0.058546185 0.022518767 0.013165495
-0.056622237 0.022514738 0.014082223
-0.055240851 0.02219579 0.014199588
0.040802557 0.022883914 0.013948373
0.042242218 0.02276445 0.013979728
0.043975953 0.022717183 0.014062788
0.045836344 0.022855302 0.014066147
0.047752157 0.022708502 0.013689381
0.04932069 0.022181461 0.013009239
0.051158894 0.021805553 0.012773154
-0.058455206 0.02427776 0.013089136
-0.056685824 0.024292456 0.013962179
-0.054994959 0.024446344 0.014269856
-0.053846132 0.024647363 0.014336725
0.037101176 0.024943566 0.014196061
0.038909204 0.024974115 0.014202293
0.040433843 0.024372067 0.013453286
0.042360853 0.024220724 0.013049326
0.044097409 0.024194317 0.01305975
0.045848399 0.024172556 0.013063956
0.047582943 0.024146672 0.012906511
0.048691679 0.023654981 0.0126236
-0.058109194 0.025520261 0.012838165
-0.056556966 0.025829175 0.013240023
-0.054933235 0.025975129 0.013644688
-0.053353205 0.026470611 0.013939803
-0.051515698 0.026898531 0.014239259
-0.04891742 0.026949061 0.014305763
-0.048351221 0.026947642 0.014334075
0.035399795 0.026586993 0.014000354
0.036657099 0.02608275 0.013749211
0.038926728 0.026091667 0.013645178
0.040036671 0.025898336 0.013059539
-0.052745465 0.027165763 0.013240115
-0.051338002 0.027300984 0.013470938
-0.049520861 0.027413791 0.013624396
-0.047695722 0.027595388 0.013696137
-0.045782052 0.028053813 0.013508161
-0.044434465 0.02854092 0.013785123
0.026846303 0.028713351 0.014252654
0.028020354 0.028690362 0.014110414
0.02935789 0.028728949 0.01396677
0.03184054 0.028618569 0.013955905
0.033292908 0.028480489 0.013673375
0.034882028 0.027632426 0.013739918
0.036740575 0.027660701 0.012924434
0.038613532 0.027310267 0.012882725
-0.04376756 0.028991669 0.013302637
-0.04239738 0.028965423 0.013484873
-0.040533796 0.029376816 0.013466815
-0.038676526 0.030054063 0.013496589
-0.036722519 0.030110735 0.013654457
-0.035069682 0.029898576 0.013417422
-0.033487283 0.029847328 0.013300145
-0.031436671 0.029910658 0.013475969
-0.029701147 0.030000141 0.013362085
-0.027841005 0.029894765 0.013533293
-0.025947411 0.029811703 0.013537671
-0.024341984 0.030012622 0.013430599
-0.022435192 0.029870141 0.01343782
-0.020681841 0.029976187 0.013581138
-0.018886959 0.030190062 0.013526252
-0.016987478 0.030091323 0.013358168
-0.015377519 0.029877702 0.013345383
-0.013539658 0.02996714 0.013524309
-0.011605286 0.030063717 0.013470367
-0.010134101 0.030157233 0.013599542
-0.0081027113 0.03024032 0.013659222
-0.0062528471 0.030018315 0.013912175
-0.0043587494 0.030259155 0.013569814
-0.0028661634 0.030074431 0.013529968
-0.00073543092 0.029473947 0.013512359
0.001016511 0.029244697 0.013533213
0.002549157 0.029496128 0.013536991
0.0044834143 0.029642535 0.013434879
0.0064353603 0.029839585 0.013385454
0.0081524448 0.030267762 0.013403838
0.0095651587 0.030415004 0.013883819
0.011589847 0.030548787 0.014019452
0.013972775 0.030498249 0.013733434
0.015244562 0.030497484 0.013477013
0.017033907 0.03041886 0.013642309
0.019075431 0.030270558 0.013465372
0.020763842 0.030206364 0.013398291
0.022590529 0.02980363 0.013581618
0.024172388 0.029426685 0.013502145
0.026125336 0.029018542 0.013450533
0.027898466 0.028975395 0.013269699
0.029728232 0.028956931 0.013195246
0.031431925 0.029005779 0.01312809
0.033233199 0.028943576 0.012829022
0.034447454 0.028915351 0.012828683
-0.0095633334 0.030684259 0.012816062
-0.0083501479 0.030664442 0.012792933
-0.0061642146 0.030662885 0.012850774
-0.0049138009 0.030643607 0.012803663
-0.0027648001 0.030609898 0.012613899
0.0098331263 0.030751018 0.013018164
0.011889737 0.030709827 0.013182853
0.013428889 0.030708902 0.012966972
0.014793025 0.0306122 0.012686525
0.017552292 0.030644786 0.012774801
0.01824045 0.030614225 0.012740375
0.0341346 -0.0324043 0.01446394
0.035371736 -0.032501638 0.014596332
0.036651939 -0.032579269 0.014626036
0.038778484 -0.032555267 0.014741921
0.039875258 -0.032556392 0.01467167
0.023114618 -0.030650817 0.014558724
0.024385802 -0.030732878 0.014879038
0.026282061 -0.03087477 0.015369249
0.027882462 -0.031058297 0.015490464
0.029751794 -0.031281862 0.015286124
0.031474415 -0.031607244 0.01536263
0.033303127 -0.031912372 0.015272363
0.035200503 -0.032071296 0.015468339
0.036848892 -0.031889301 0.01542823
0.038630504 -0.032033667 0.015596223
0.040758822 -0.031684574 0.015486741
0.042217031 -0.031027354 0.015191927
0.043943465 -0.030928034 0.014908157
0.045292158 -0.030733818 0.014562851
0.0124731 -0.028824301 0.01457309
0.013718992 -0.028939135 0.014950657
0.015431259 -0.029199095 0.015394063
0.017087646 -0.029710479 0.015317709
0.018982368 -0.030224115 0.015188619
0.020642919 -0.030185591 0.015301502
0.022490585 -0.030275604 0.015254362
0.024109626 -0.030327601 0.015703538
0.026067888 -0.03053279 0.016081229
0.042551141 -0.030078588 0.015726669
0.043883707 -0.029813414 0.015807707
0.045921016 -0.029699909 0.015568472
0.047481421 -0.029357878 0.015192296
0.048618 -0.028857401 0.014431122
-0.029127279 -0.027116198 0.014914525
-0.027918896 -0.027341804 0.015148391
-0.026143156 -0.027516376 0.015188826
-0.024279147 -0.027741045 0.0154289
-0.022499125 -0.028049435 0.015420137
-0.020763643 -0.028207649 0.015320523
-0.018974371 -0.028275831 0.015290683
-0.017036816 -0.028275071 0.015217962
-0.015273815 -0.028016567 0.01534096
-0.013269417 -0.02791992 0.015376
-0.012050766 -0.027468581 0.015101774
0.0012843342 -0.027217574 0.015410647
0.0027162458 -0.027532052 0.015355957
0.0044201077 -0.027965691 0.015247642
0.0060927137 -0.028257817 0.015270169
0.0081707342 -0.028264416 0.015271165
0.0099473074 -0.028363567 0.015353935
0.011570796 -0.028556598 0.01536395
0.013341065 -0.028688775 0.01579627
0.0145108 -0.0287726 0.016145989
0.044402409 -0.028708048 0.016152605
0.045698605 -0.028763261 0.016079288
0.048167843 -0.028448386 0.0156016
0.048761021 -0.027756022 0.014939993
-0.036770601 -0.025202526 0.014730275
-0.034669649 -0.025302304 0.015284144
-0.033280119 -0.025451586 0.015303724
-0.031397153 -0.026083203 0.015128982
-0.029612338 -0.02672263 0.015399869
-0.028313825 -0.026904918 0.01591474
-0.026255034 -0.026955735 0.016102999
-0.011140866 -0.026856387 0.01540016
-0.0097350217 -0.026440248 0.015143134
-0.0081782648 -0.026101625 0.015270637
-0.0064994283 -0.025697235 0.015495966
-0.0043559577 -0.025928646 0.015281894
-0.0027540799 -0.026131267 0.015276901
-0.0010840753 -0.026445365 0.015408596
0.00035446492 -0.026901605 0.015602605
0.048838228 -0.026040863 0.01517362
-0.043225102 -0.023451401 0.014480599
-0.04209052 -0.023706136 0.014944255
-0.040367667 -0.024069518 0.015331882
-0.038756128 -0.024438506 0.01527774
-0.036818583 -0.024945924 0.015220926
-0.035206523 -0.025041334 0.015607333
-0.033745777 -0.025085198 0.016045369
0.048935078 -0.024465235 0.015259224
-0.047127329 -0.02184343 0.014605407
-0.046033036 -0.022028213 0.014721541
-0.043798044 -0.022471398 0.015161408
-0.042576846 -0.022989416 0.015624069
-0.041164961 -0.023302361 0.016093833
0.048578501 -0.021755001 0.014431089
0.048818 -0.022482701 0.015312442
-0.048878524 -0.01999826 0.014529848
-0.047496602 -0.020602284 0.014804007
-0.045957286 -0.020753197 0.01529697
-0.044320393 -0.020946398 0.01573492
0.048465423 -0.020716447 0.014877521
0.048653811 -0.020765504 0.015694056
-0.049313568 -0.018911151 0.014533218
-0.047778498 -0.018940181 0.014902893
-0.045882881 -0.018938387 0.015629707
-0.04441027 -0.018984824 0.015931603
-0.042279411 -0.018352715 0.015984263
-0.040601425 -0.018451707 0.015972769
-0.038809285 -0.018181719 0.016065387
0.048434276 -0.018763628 0.014907685
0.048672676 -0.018724691 0.015719345
-0.047544606 -0.017699288 0.014544112
-0.045691628 -0.017329404 0.014915559
-0.044141997 -0.017063566 0.015125055
-0.042260997 -0.017122449 0.015396973
-0.040365342 -0.017090363 0.015363446
-0.038668543 -0.017094186 0.015654303
-0.037776943 -0.01708526 0.016154131
0.048568115 -0.017696744 0.015911553
0.04909391 -0.017172527 0.015286806
-0.043751922 -0.015977481 0.014551166
-0.042154629 -0.015650783 0.014727194
-0.040442206 -0.015337049 0.014893378
-0.038999498 -0.015344027 0.015348134
0.049613811 -0.015195906 0.015401077
-0.041908484 -0.013533918 0.014468152
-0.040426366 -0.013550422 0.014611674
-0.039217584 -0.013633477 0.015353575
0.049855892 -0.013528897 0.015482613
-0.04269525 -0.011784544 0.014404766
-0.039992701 -0.011553639 0.014620451
-0.039241258 -0.011693579 0.015609277
0.05020817 -0.011937417 0.015476113
0.05053582 -0.01119015 0.0149559
-0.041738492 -0.01008104 0.014408972
-0.040147878 -0.0099580567 0.014781862
-0.039435651 -0.01026137 0.01590874
0.050391398 -0.01072768 0.01612005
0.050982844 -0.0098360702 0.015215557
-0.041402202 -0.0086637102 0.014400709
-0.040512286 -0.0081493845 0.015022461
0.051416125 -0.0080587203 0.015127266
-0.041481044 -0.0055320947 0.014945116
-0.041054089 -0.0064551439 0.015197065
0.051923662 -0.0064263013 0.015185012
0.052332733 -0.0056257294 0.015450662
-0.041952718 -0.0044827331 0.015339424
-0.041388202 -0.0053862501 0.01600118
0.052730273 -0.0045184828 0.015195932
-0.043349896 -0.0020258899 0.015288803
-0.042841148 -0.0029088848 0.015432356
0.053503141 -0.0025926312 0.015186138
-0.043970272 -0.00084688736 0.015430813
0.053874992 -0.0014988658 0.015009753
0.054378998 -0.00060452282 0.015471674
-0.045256443 0.0013689394 0.015283226
-0.044649761 0.00066629355 0.015754884
0.055116326 0.00089021679 0.01544338
-0.045762938 0.0027798947 0.015495245
-0.044959567 0.0019502568 0.01608561
0.055679809 0.0022697286 0.015683576
0.056070883 0.0028284537 0.015226058
-0.046106145 0.0044846125 0.01553876
0.055470962 0.0046933144 0.015887156
0.056299888 0.0045263735 0.015053586
-0.046863761 0.00707595 0.015386832
-0.046491824 0.0062107751 0.015352685
0.053570248 0.0069021462 0.015981771
0.05499009 0.0062874332 0.015583465
0.056152813 0.0061454517 0.014816495
-0.047492858 0.0082089445 0.015424857
0.051889177 0.0084332423 0.015836909
0.05312423 0.0080765495 0.015300464
0.054611545 0.0076927221 0.014826208
-0.048869498 0.010352775 0.015087281
-0.047955289 0.0097279698 0.015529233
-0.046441667 0.01016806 0.016100751
0.050356962 0.010231621 0.016181236
0.051415592 0.010167442 0.015745318
0.052976698 0.010277828 0.014739582
